-58.78775405883789 46.38568115234375 40.09648895263672
-49.97575759887695 67.62846374511719 49.07706069946289
-38.24064254760742 68.08000183105469 59.60316467285156
-24.701093673706055 66.8105697631836 66.8696517944336
-14.023149490356445 55.611846923828125 64.6086196899414
-27.094552993774414 52.45393371582031 57.591007232666016
-40.494632720947266 52.03491973876953 55.50267791748047
-53.47637939453125 47.92707824707031 45.37782669067383
57.735042572021484 45.02967071533203 42.833763122558594
53.581050872802734 46.357810974121094 48.79246139526367
39.35539245605469 51.97211837768555 57.24785614013672
23.137605667114258 54.03788375854492 58.7271842956543
13.76618480682373 55.398597717285156 64.2536849975586
21.012439727783203 67.04095458984375 67.1618881225586
38.381141662597656 68.57273864746094 59.969688415527344
51.35871887207031 64.30361938476562 49.637393951416016
-45.0958366394043 39.85594940185547 50.45331954956055
-38.71443557739258 42.63949203491211 55.3751335144043
-32.29024887084961 43.78261947631836 56.79216384887695
-26.463953018188477 43.259521484375 55.98893356323242
-17.049617767333984 38.5908317565918 53.22840118408203
-27.01469612121582 37.46879196166992 54.679229736328125
-33.238807678222656 36.07355499267578 54.83574295043945
-38.79698181152344 36.78696060180664 53.1422233581543
44.36258316040039 38.468833923339844 51.17736053466797
38.321102142333984 35.95195388793945 54.5515251159668
32.25090408325195 34.87568283081055 55.28862380981445
26.853164672851562 35.78038787841797 55.14726257324219
17.747825622558594 38.19419860839844 53.554203033447266
25.985841751098633 43.1365966796875 57.840110778808594
31.890031814575195 42.47380447387695 58.12940979003906
38.10505294799805 41.58057403564453 56.3570442199707
-32.461036682128906 41.180755615234375 53.93390655517578
32.163177490234375 41.341434478759766 55.21310043334961
9.333970069885254 39.11359786987305 61.387081146240234
12.065438270568848 13.02285099029541 76.19376373291016
20.87825584411621 1.9377532005310059 65.39188385009766
16.25946044921875 -6.234430313110352 68.24261474609375
11.609651565551758 -1.4927366971969604 76.18795776367188
0.9725103378295898 -10.745224952697754 78.28469848632812
-12.156124114990234 -0.5439801812171936 82.93875885009766
-18.697338104248047 -6.4730329513549805 66.64996337890625
-19.59759521484375 3.089874029159546 67.6855697631836
-10.891704559326172 13.059280395507812 75.5554428100586
-7.46528959274292 39.204856872558594 61.836181640625
1.1312594413757324 5.85693359375 95.5389404296875
-16.90602684020996 -33.767669677734375 68.02003479003906
-13.779613494873047 -27.076557159423828 74.76134490966797
-5.932367324829102 -24.669189453125 77.99512481689453
0.6140673160552979 -26.08116340637207 76.95748901367188
5.681195259094238 -25.041522979736328 76.78822326660156
10.324676513671875 -29.417490005493164 73.30953216552734
20.553325653076172 -32.99639129638672 63.94895935058594
1.8207987546920776 -31.12150764465332 75.0767593383789
-3.5347132682800293 -36.420867919921875 74.50391387939453
-14.433735847473145 -35.32211685180664 71.294189453125
-9.46682071685791 -30.471376419067383 73.64928436279297
-0.6139748692512512 -30.5156192779541 75.48851776123047
9.426897048950195 -29.165897369384766 73.96139526367188
-9.262999534606934 -31.15749168395996 73.08965301513672
0.028648564592003822 -30.809406280517578 75.29283905029297
9.127242088317871 -28.645864486694336 74.51777648925781
-79.42445373535156 -17.39767837524414 -26.813690185546875
-72.31111145019531 -48.37485885620117 -16.144941329956055
-52.31009292602539 -67.69017791748047 31.746536254882812
-36.05173110961914 -75.49274444580078 43.29932403564453
-16.352636337280273 -82.45471954345703 63.23440170288086
-5.247279167175293 -82.33956909179688 65.68389129638672
16.133197784423828 -81.58267974853516 60.82292175292969
27.617401123046875 -78.44161224365234 43.441532135009766
53.72176742553711 -62.30879592895508 17.80481719970703
73.19491577148438 -37.2965202331543 -13.749382972717285
75.32646942138672 -21.35359764099121 -25.811553955078125
