-61.81547546386719 51.77547073364258 42.09296417236328
-52.85951232910156 61.33161163330078 54.547630310058594
-41.525997161865234 63.766178131103516 62.175357818603516
-27.383338928222656 63.0749626159668 67.92533111572266
-15.928961753845215 54.41931915283203 67.00042724609375
-28.25543212890625 53.42380142211914 61.63444900512695
-41.90904235839844 53.97052001953125 59.53602600097656
-53.058231353759766 51.82158660888672 52.82357406616211
61.412620544433594 50.38825225830078 41.362911224365234
53.32981872558594 53.10821533203125 52.66197967529297
41.6892204284668 55.514461517333984 60.03946304321289
28.04911231994629 54.177310943603516 62.2510986328125
15.137931823730469 54.58625411987305 66.97879791259766
26.050983428955078 62.75159454345703 68.11112976074219
42.089012145996094 64.83403015136719 61.37047576904297
54.939823150634766 62.31005096435547 51.20250701904297
-48.492889404296875 41.60945510864258 47.555580139160156
-41.328948974609375 46.152122497558594 53.47650909423828
-33.80415725708008 47.24470520019531 55.031192779541016
-27.814268112182617 45.44833755493164 54.401912689208984
-18.79741859436035 39.09849548339844 52.939544677734375
-28.410818099975586 37.27910232543945 53.4763298034668
-34.502994537353516 36.1342887878418 53.35610580444336
-41.28995895385742 36.64589309692383 51.46440505981445
47.31964111328125 41.826717376708984 47.46284484863281
40.385108947753906 36.64145278930664 51.908565521240234
33.32435989379883 36.44498062133789 54.097007751464844
27.124189376831055 37.48104476928711 53.47478103637695
18.36851692199707 39.283206939697266 52.678627014160156
26.950002670288086 45.233036041259766 54.750423431396484
33.0199089050293 47.07859802246094 55.22464370727539
40.80035400390625 46.53853988647461 52.953453063964844
-35.09476852416992 46.82666778564453 55.6258659362793
32.75117111206055 46.78514862060547 55.59937286376953
9.120558738708496 39.57894515991211 62.36900329589844
14.124678611755371 12.227544784545898 75.87290954589844
19.752464294433594 2.172024965286255 66.65128326416016
15.446619033813477 -7.0467939376831055 70.2091064453125
10.725879669189453 1.3751778602600098 82.31692504882812
-0.8633007407188416 -8.203490257263184 79.70497131347656
-10.973827362060547 1.6997243165969849 82.2759017944336
-17.134653091430664 -7.459082126617432 68.95634460449219
-20.444580078125 0.9189199209213257 66.17379760742188
-14.353275299072266 12.786102294921875 75.81749725341797
0.0 0.0 0.0
-1.1262714862823486 8.233809471130371 95.53358459472656
-29.00688362121582 -35.8076286315918 62.861942291259766
-19.196380615234375 -29.448808670043945 74.60283660888672
-9.62610912322998 -24.629776000976562 80.79005432128906
-1.9205899238586426 -26.797327041625977 82.34187316894531
5.749256610870361 -24.618810653686523 81.62237548828125
15.938459396362305 -29.61600685119629 76.22086334228516
26.272003173828125 -35.474639892578125 63.35995101928711
13.921904563903809 -40.9672966003418 76.16893768310547
-1.1954295635223389 -42.29896545410156 79.34722900390625
-16.77008819580078 -41.20880126953125 74.74386596679688
-13.983259201049805 -32.71536636352539 73.90650939941406
-1.7314023971557617 -33.213157653808594 77.27979278564453
10.254617691040039 -32.88669967651367 74.94761657714844
-14.061423301696777 -34.741241455078125 74.172607421875
-1.7935246229171753 -34.7640380859375 77.03364562988281
10.463728904724121 -34.5711669921875 75.33409118652344
-74.7939682006836 -13.38326644897461 -27.875530242919922
-66.1261978149414 -44.39474868774414 -9.335833549499512
-51.92326354980469 -62.9478645324707 14.567338943481445
-36.94865798950195 -72.99182891845703 38.51040267944336
-18.29418182373047 -81.6632308959961 56.66231918334961
-0.5269728899002075 -82.2851791381836 62.78965377807617
17.977487564086914 -81.32815551757812 56.86581039428711
36.134498596191406 -73.23799133300781 38.07300567626953
52.4168701171875 -61.22836685180664 15.58328628540039
66.49894714355469 -42.15681838989258 -8.916702270507812
72.91799926757812 -14.343733787536621 -26.51127815246582
