-0.04470396 0.27160085 0.10834835
-0.0473304 0.26330816 0.10647742
-0.0456474 0.26089221 0.10758531
-0.04930974 0.26572964 0.10510525
-0.05026635 0.25861043 0.1029864
-0.0484691 0.25641218 0.10433077
-0.05222842 0.26081288 0.10147788
-0.05253346 0.25403552 0.09916134
-0.05076236 0.25189318 0.10068953
-0.05438296 0.25623401 0.09755123
-0.0544058 0.24956961 0.0952194
-0.0526936 0.24740676 0.0968918
-0.05612663 0.25182341 0.09350386
-0.05592825 0.24525353 0.09122041
-0.05428363 0.2430415 0.09303338
-0.05752843 0.24757288 0.08938254
-0.05718795 0.24106951 0.08725075
-0.05560145 0.23881044 0.08920217
-0.05870857 0.24344686 0.08528876
-0.05828182 0.23683049 0.08326814
-0.05672315 0.23451568 0.08533343
-0.05974906 0.23926938 0.08120053
-0.05953952 0.2243661 0.07075393
-0.05794157 0.22192394 0.07296585
-0.05800778 0.22596811 0.07718918
-0.0595811 0.22839256 0.07502005
-0.06098842 0.22693427 0.06856981
-0.06101395 0.23094116 0.07286572
-0.05887783 0.22054006 0.06637722
-0.05724546 0.21812379 0.06861444
-0.0603627 0.22308216 0.06417584
-0.05752917 0.21694544 0.06189412
-0.05585508 0.21462419 0.06414434
-0.05906083 0.21939485 0.05968687
-0.05556937 0.21358305 0.0574395
-0.05387436 0.21143007 0.05970904
-0.05714662 0.21584517 0.05520039
-0.05134092 0.20659355 0.04916459
-0.04961826 0.20483762 0.05148693
-0.05162781 0.2082943 0.05547624
-0.05332199 0.21025217 0.05317696
-0.05301269 0.20837143 0.04678984
-0.0549289 0.21228535 0.05086806
-0.05024831 0.20231095 0.04549694
-0.0483966 0.20077714 0.04779019
-0.05204393 0.20383387 0.04310738
-0.0501749 0.19748454 0.04236565
-0.04816252 0.19613146 0.04462
-0.05211442 0.19880971 0.03997992
-0.05076302 0.19236307 0.03990686
-0.04863515 0.19112835 0.04215241
-0.05280288 0.19356698 0.03749681
-0.05173946 0.18711044 0.03785577
-0.04956728 0.1859387 0.04015202
-0.05377644 0.1882656 0.03536491
-0.05287279 0.18179451 0.03582565
-0.05073864 0.18062326 0.03821807
-0.0548442 0.18295429 0.03324001
-0.05410267 0.17645171 0.03368559
-0.05204507 0.17525576 0.03617382
-0.05596362 0.17762843 0.03102056
-0.0553794 0.17118791 0.03140585
-0.05344727 0.16995998 0.03397852
-0.05708695 0.17239168 0.02867717
-0.05667244 0.16602432 0.02896239
-0.0548731 0.16475956 0.03159527
-0.05821985 0.16725922 0.0261879
-0.05798895 0.16088302 0.02635381
-0.05632894 0.15958703 0.02904
-0.05938071 0.16215113 0.02355171
-0.03287296 0.17125909 -0.04519212
-0.02991868 0.17064986 -0.04648362
-0.03576959 0.17188056 -0.04372776
-0.03157278 0.175958 -0.04280527
-0.02871285 0.17543575 -0.04409071
-0.03439357 0.17646697 -0.04133122
-0.03053073 0.18063161 -0.04088789
-0.02772605 0.18021301 -0.04217364
-0.03331255 0.18103674 -0.03939849
-0.02973386 0.18523579 -0.03939493
-0.02695192 0.18491168 -0.04070576
-0.03249539 0.18555121 -0.03786031
-0.02912561 0.18973143 -0.03819655
-0.02634641 0.18947835 -0.0395483
-0.03188137 0.18997996 -0.03660677
-0.02866551 0.19411487 -0.0372103
-0.02588977 0.19391382 -0.03861994
-0.03140717 0.19432483 -0.0355559
-0.02832287 0.19841026 -0.03639592
-0.02556179 0.19823938 -0.0378634
-0.03103057 0.19859888 -0.03468291
-0.0280449 0.20265396 -0.03574937
-0.02531961 0.20249536 -0.03724784
-0.03070604 0.20284394 -0.03400631
-0.02780388 0.20686034 -0.03525629
-0.02514048 0.20668876 -0.03677056
-0.0304151 0.20707043 -0.03349377
-0.02767464 0.21101159 -0.03483989
-0.02504406 0.21081965 -0.03638172
-0.03026164 0.21124744 -0.03304571
-0.02768204 0.21510408 -0.03448978
-0.02505302 0.21489491 -0.03607532
-0.03027666 0.21536085 -0.03265379
-0.02777206 0.21915876 -0.03425462
-0.02513493 0.21893114 -0.0358806
-0.03037664 0.21943117 -0.03237523
-0.02859044 0.23112379 -0.03437928
-0.02583616 0.23090519 -0.03611546
-0.02549483 0.2269458 -0.03590353
-0.02820486 0.22718386 -0.03419827
-0.03134827 0.23135076 -0.03240923
-0.03090713 0.22743688 -0.03225931
-0.02905878 0.23501132 -0.03473922
-0.02623178 0.23480958 -0.03649575
-0.03188699 0.23521397 -0.03274826
-0.02961816 0.23884031 -0.03531193
-0.02671037 0.23865421 -0.03709426
-0.03251734 0.23904017 -0.03327228
-0.03027699 0.24263491 -0.03611018
-0.02729285 0.24245586 -0.0379309
-0.03325775 0.24283341 -0.03402248
-0.0310386 0.24640103 -0.03713867
-0.02798049 0.24622068 -0.03900985
-0.03408803 0.24660794 -0.034994
-0.03186444 0.25017423 -0.03834613
-0.02873733 0.24996961 -0.04029729
-0.03497789 0.25039439 -0.03614586
-0.03274017 0.25395164 -0.03973275
-0.02952298 0.25375035 -0.04172066
-0.03593632 0.25417687 -0.03746915
-0.0336807 0.25773662 -0.0412941
-0.0303758 0.25754398 -0.04333154
-0.03696011 0.25795903 -0.03896927
-0.03463067 0.2616054 -0.04292388
-0.0312403 0.26141015 -0.04502706
-0.03798565 0.26182746 -0.04052897
-0.03560677 0.26558632 -0.0446335
-0.03213133 0.26538447 -0.04681233
-0.03903276 0.26580678 -0.04214817
-0.03657238 0.26974768 -0.04635634
-0.03301295 0.26955709 -0.04858599
-0.04010756 0.26993442 -0.04382708
-0.0375538 0.27411687 -0.04808611
-0.03390994 0.27393369 -0.05038641
-0.04115551 0.27428608 -0.04545653
-0.03853057 0.27872604 -0.04975684
-0.0348017 0.27857151 -0.05214428
-0.04219387 0.27885082 -0.04701522
-0.03953769 0.28356987 -0.05134983
-0.03569609 0.28348522 -0.05378719
-0.04328715 0.28362118 -0.04852676
-0.04048045 0.28872547 -0.05273031
-0.03659294 0.28867955 -0.05531739
-0.04430499 0.28870621 -0.04980048
-0.04152385 0.2941635 -0.0540561
-0.03757061 0.29417216 -0.05676751
-0.04539743 0.29408648 -0.05095967
-0.04264125 0.29995852 -0.05524689
-0.03857086 0.300042 -0.0580308
-0.04657201 0.29982142 -0.05201262
-0.04373254 0.30619522 -0.05614883
-0.03960987 0.30633261 -0.0590559
-0.04775721 0.30597157 -0.05282985
-0.04478319 0.31287385 -0.05669864
-0.04059222 0.31306201 -0.0597456
-0.04886892 0.31259124 -0.05327842
-0.04647558 0.32740506 -0.05637933
-0.04213322 0.32771481 -0.05952017
-0.04143762 0.32022875 -0.0599012
-0.04571319 0.31997372 -0.05681536
-0.05061519 0.32699863 -0.05277645
-0.04983868 0.3196298 -0.05327166
-0.04703856 0.33505734 -0.05541831
-0.04267189 0.33541395 -0.05857074
-0.05121911 0.3345892 -0.05180445
-0.04749232 0.34280766 -0.05399095
-0.04308667 0.34321271 -0.05712797
-0.05168208 0.34228375 -0.05038379
-0.04769968 0.35051093 -0.05199442
-0.04332084 0.35097989 -0.05511456
-0.05190524 0.34995629 -0.04844485
-0.04766038 0.35807008 -0.04941347
-0.04334491 0.35860772 -0.05254545
-0.05184035 0.35746484 -0.04593648
-0.04737005 0.36537881 -0.04628717
-0.04309223 0.36596739 -0.04933528
-0.05146477 0.36471202 -0.04287603
-0.04315727 0.38956337 -0.02822194
-0.03943849 0.39045793 -0.03069283
-0.04065996 0.38525132 -0.03607657
-0.04454083 0.38442692 -0.03339661
-0.04667608 0.38863187 -0.02549247
-0.04825693 0.38358229 -0.03045134
-0.04165601 0.3939635 -0.02273232
-0.03810465 0.39492738 -0.02496174
-0.04499919 0.39296385 -0.02027382
-0.04013994 0.3976316 -0.01704056
-0.03674939 0.39867449 -0.01900784
-0.0433256 0.3965717 -0.01487607
-0.03868413 0.4005784 -0.01122792
-0.03543492 0.40167728 -0.01291087
-0.04171464 0.39944406 -0.00937583
-0.03733236 0.40281882 -0.00534354
-0.03420214 0.40396264 -0.00673088
-0.04026075 0.40164501 -0.00383329
-0.03616142 0.40443002 0.00055753
-0.033127 0.40561408 -0.0005217
-0.03901139 0.40321725 0.00172439
-0.03519489 0.40546818 0.00646848
-0.03223152 0.40668778 0.00569477
-0.03798984 0.40420722 0.00728818
-0.03445015 0.40597715 0.01239721
-0.0315157 0.4072057 0.01192108
-0.03722733 0.40469288 0.01287769
-0.03392998 0.40604686 0.01834676
-0.0310131 0.40729038 0.01814914
-0.03672694 0.40477098 0.01851223
-0.0336338 0.40573475 0.02432418
-0.03070557 0.40696984 0.02438644
-0.03645033 0.40441514 0.02420327
-0.03362955 0.40402654 0.0364121
-0.03064729 0.4052772 0.03690341
-0.03059101 0.40629001 0.03063707
-0.0335409 0.40505179 0.03035088
-0.0365265 0.4026889 0.03583184
-0.03639585 0.40371902 0.02997953
-0.0338508 0.40264051 0.04250609
-0.03083782 0.40391057 0.04318629
-0.03679158 0.40130507 0.04173655
-0.03419588 0.4009257 0.04863343
-0.03114417 0.40219477 0.04947384
-0.03714611 0.3995346 0.0476869
-0.03542442 0.39312212 0.06698192
-0.03230316 0.39437126 0.06821213
-0.03190744 0.39743864 0.06200229
-0.03500066 0.39616067 0.06088355
-0.0384795 0.39181457 0.06566693
-0.03801995 0.39481286 0.05966803
-0.03580777 0.38962247 0.07300651
-0.03266702 0.39083209 0.07433127
-0.03886807 0.38833852 0.07158737
-0.0364745 0.37157053 0.09505707
-0.03333612 0.37256368 0.09661084
-0.03335664 0.37766942 0.09149396
-0.03649573 0.37660563 0.08997616
-0.03946891 0.37047875 0.09335834
-0.03951098 0.37544583 0.08832032
-0.03629649 0.36631237 0.09975298
-0.03317538 0.36723959 0.10133075
-0.03927225 0.36529637 0.09803061
-0.03593435 0.36090961 0.10397119
-0.0328392 0.36175912 0.1055567
-0.0388835 0.35997365 0.10223536
-0.03531197 0.35539021 0.10754456
-0.03224924 0.35614239 0.10910956
-0.03823864 0.35455308 0.10582925
-0.03442813 0.34985831 0.11039747
-0.03140908 0.35050473 0.1119093
-0.0373352 0.34913928 0.10875244
-0.03348109 0.34453749 0.11277217
-0.03050305 0.34507711 0.11421515
-0.03635724 0.34393183 0.11119722
-0.0326474 0.33955597 0.11493717
-0.02971788 0.34000635 0.11634275
-0.03549137 0.33904462 0.11340716
-0.03202281 0.334942 0.11706496
-0.02912569 0.33532046 0.11845775
-0.0348413 0.33450662 0.11555473
-0.03151871 0.33062687 0.11901412
-0.02861203 0.33091655 0.12035211
-0.03435195 0.33029077 0.11756004
-0.03100393 0.32655742 0.12054489
-0.02805774 0.3267319 0.12178972
-0.03387908 0.32634882 0.1191841
-0.03036453 0.32275898 0.12137778
-0.02736768 0.32279926 0.12253658
-0.0332964 0.32270231 0.12013559
-0.02950572 0.31932551 0.12124718
-0.02641827 0.31923443 0.12231211
-0.03251846 0.31941565 0.1201412
-0.0284543 0.31639443 0.12015871
-0.02511435 0.3161422 0.12104945
-0.03162777 0.31663754 0.11929746
-0.00269513 0.3116661 0.12445693
-0.00256129 0.30973885 0.12404639
-0.00282028 0.31382609 0.12496358
-0.00734309 0.31176559 0.12329306
-0.00683269 0.30987522 0.12260351
-0.00476412 0.30978649 0.12342537
-0.00505863 0.31170345 0.12393891
-0.00784868 0.31387816 0.12414951
-0.00534578 0.31384754 0.12458705
-0.00955302 0.31181183 0.12263428
-0.0087647 0.30997177 0.1217215
-0.01031761 0.31389167 0.12369382
-0.01169237 0.31183443 0.12191807
-0.01059023 0.31003827 0.12081091
-0.01275159 0.31389058 0.12315498
-0.01377117 0.31183628 0.12106183
-0.01233062 0.31006344 0.11981155
-0.01516394 0.31386508 0.12246203
-0.01581376 0.31179053 0.12000712
-0.01399749 0.31003012 0.1186654
-0.01759599 0.31380109 0.12155358
-0.01782276 0.31160285 0.11873636
-0.01558406 0.30985315 0.11739858
-0.02015143 0.31363152 0.12037694
-0.01962091 0.31108583 0.1172824
-0.01700313 0.30939646 0.11612599
-0.02324035 0.31320832 0.11875408
-0.01044782 0.29707612 0.11656871
-0.01011055 0.29873827 0.11601242
-0.01109572 0.29846619 0.11460104
-0.01149567 0.2967726 0.11509496
-0.00996382 0.30054885 0.11556377
-0.01091866 0.30028672 0.11419295
-0.01203026 0.29515124 0.11567056
-0.01089363 0.29552828 0.11721947
-0.01261754 0.29356217 0.11634562
-0.0113703 0.29405526 0.11793601
-0.01252551 0.28995101 0.12038162
-0.01392416 0.28911232 0.11882209
-0.01487046 0.30775681 0.11517402
-0.01362718 0.30815787 0.11636838
-0.01313787 0.30604508 0.11444664
-0.01185219 0.30419157 0.11401936
-0.0108252 0.3044792 0.11529608
-0.01200981 0.3063833 0.1156562
-0.01014863 0.30248685 0.11528869
-0.01111581 0.30222283 0.11395259
-0.02226944 0.29848446 0.10873997
-0.02351688 0.29830808 0.10928472
-0.02505726 0.29802757 0.1099324
-0.02691925 0.29766146 0.11055161
-0.02909867 0.29728022 0.11101082
-0.03150005 0.29698101 0.11118098
-0.03388625 0.29687927 0.11097367
-0.036117 0.29699561 0.11037459
-0.03821418 0.29731434 0.10942689
-0.04006743 0.29779994 0.10830883
-0.04158439 0.29837247 0.10715217
-0.04277064 0.29893287 0.10603858
-0.04178786 0.30380636 0.10767799
-0.04287975 0.30307772 0.10656191
-0.04051791 0.30450511 0.10870127
-0.03905514 0.30514688 0.10962801
-0.03740735 0.30570917 0.11044264
-0.03559582 0.30615532 0.11111573
-0.03363017 0.30641802 0.11159176
-0.03153418 0.30643435 0.11184127
-0.02936497 0.30616777 0.11186875
-0.02722623 0.30562494 0.11168913
-0.02523103 0.30488684 0.1113178
-0.0234894 0.30405787 0.11078476
-0.0437872 0.30233981 0.10539048
-0.0446914 0.30101271 0.10354283
-0.04462942 0.30046375 0.10353318
-0.04442295 0.30163486 0.10428374
-0.02191947 0.29847263 0.10924441
-0.02327877 0.29835255 0.10975452
-0.03249853 0.29082622 0.11109183
-0.03536936 0.29052665 0.11029816
-0.0359241 0.28913367 0.10990685
-0.03302208 0.28944255 0.11076218
-0.03659925 0.28754674 0.10967733
-0.03363198 0.28787158 0.11060662
-0.02487489 0.29806833 0.11042564
-0.02679007 0.29765413 0.11109819
-0.04883113 0.30666376 0.10648245
-0.04806782 0.30592349 0.10632639
-0.04685178 0.30672673 0.10784752
-0.04755885 0.3074932 0.10807423
-0.04821402 0.30310716 0.10305677
-0.04757233 0.30234621 0.10311418
-0.04682809 0.30320527 0.10436243
-0.0473953 0.30400885 0.10428725
-0.04895346 0.30222279 0.10198242
-0.04826567 0.30153138 0.10203375
-0.05129085 0.29978397 0.099025
-0.0511224 0.30035368 0.09947185
-0.05172595 0.30058168 0.09921027
-0.05173562 0.29967921 0.09866883
-0.05245275 0.30068778 0.09871976
-0.0524086 0.29951521 0.09806667
-0.05153303 0.3015031 0.09999316
-0.0523161 0.30180907 0.09961881
-0.04945959 0.29997872 0.10033118
-0.05013027 0.30060926 0.1002454
-0.05056573 0.29988614 0.09955304
-0.04997997 0.29921949 0.09963756
-0.0509754 0.29925535 0.09896883
-0.05150538 0.29875909 0.09839269
-0.0522079 0.29829781 0.09768873
-0.03867865 0.28912248 0.1087851
-0.03943662 0.28750965 0.10849027
-0.05050487 0.29847152 0.09900797
-0.0511286 0.29774721 0.09836771
-0.05190988 0.29703364 0.09763691
-0.05018766 0.29556749 0.09919124
-0.04957124 0.29447601 0.09997804
-0.04878246 0.29567941 0.10052362
-0.04941532 0.29663017 0.09976885
-0.05109589 0.29445388 0.09853002
-0.05050206 0.29320506 0.09934696
-0.01788851 0.29611946 0.11146404
-0.01903637 0.295413 0.11150277
-0.01873974 0.29418641 0.11169946
-0.01738013 0.29511006 0.11170928
-0.01703591 0.29683325 0.11137159
-0.01639268 0.29610564 0.11168197
-0.01743347 0.29809206 0.11037059
-0.01800091 0.29783616 0.11051334
-0.01755515 0.29742281 0.11099278
-0.0169941 0.29787636 0.11080454
-0.01832545 0.29696133 0.11115595
-0.01873415 0.29759243 0.11068607
-0.01966423 0.29730908 0.11089858
-0.01933598 0.29646509 0.1112883
-0.0219595 0.30767124 0.112832
-0.0217027 0.30828185 0.11374105
-0.02424562 0.30922696 0.11429721
-0.02435016 0.30863939 0.113376
-0.032311 0.30969694 0.11423582
-0.03253018 0.31032236 0.11498779
-0.03519406 0.31028771 0.11472429
-0.03489097 0.30961058 0.11403655
-0.02965377 0.30960138 0.11415562
-0.02978095 0.31019242 0.11497148
-0.02698659 0.30985247 0.11472747
-0.02696281 0.30927441 0.11384439
-0.03773461 0.31011802 0.11417265
-0.03734701 0.30939019 0.11355783
-0.04011453 0.30982591 0.11336959
-0.03965171 0.30905613 0.11283762
-0.04177944 0.30863044 0.11187832
-0.04231129 0.3094253 0.112328
-0.04429204 0.3089017 0.11105689
-0.04369512 0.30810044 0.11068418
-0.04538932 0.30745993 0.10932277
-0.04604762 0.30825131 0.10962195
-0.05147572 0.30388668 0.10200535
-0.05062456 0.30331775 0.10213903
-0.04991881 0.3042061 0.10342728
-0.05076645 0.30485479 0.10340739
-0.04988557 0.30578188 0.10490525
-0.049071 0.3050783 0.10483329
-0.04596626 0.30404993 0.1057461
-0.046462 0.30487421 0.10565787
-0.04493276 0.30484366 0.10718956
-0.04369256 0.30556125 0.10861036
-0.04403832 0.3063941 0.10848037
-0.04535341 0.30566949 0.10708354
-0.02447578 0.30726519 0.11258461
-0.02690768 0.30792754 0.11319082
-0.02690873 0.30713084 0.11323767
-0.02455674 0.30644086 0.11261892
-0.02945404 0.30832722 0.11361973
-0.02938886 0.30756416 0.11370029
-0.03199964 0.30849521 0.1137529
-0.03189133 0.3077483 0.11386606
-0.03431734 0.30769947 0.11365491
-0.03446281 0.30845634 0.11350424
-0.03676578 0.30827472 0.11290915
-0.03658825 0.30748422 0.11308616
-0.03887749 0.30796618 0.11204718
-0.03867303 0.30715187 0.11222254
-0.04080239 0.30754298 0.11100743
-0.04055673 0.30671346 0.11116075
-0.04252238 0.30702321 0.10980402
-0.04223496 0.30618781 0.10994852
-0.02937223 0.30611428 0.11256031
-0.03160995 0.30631292 0.11258402
-0.03375465 0.30624352 0.11234455
-0.03576583 0.30595624 0.11185034
-0.03763081 0.30550747 0.11114442
-0.0379957 0.30566544 0.11182157
-0.03978343 0.30514235 0.11090044
-0.03933607 0.30495738 0.11028003
-0.03393802 0.30639144 0.11306259
-0.03603872 0.30609443 0.11256263
-0.04392351 0.30326997 0.10726218
-0.04333095 0.30302244 0.10695109
-0.04219049 0.30370559 0.10817454
-0.04275401 0.30394563 0.1085997
-0.04137709 0.30456901 0.10982009
-0.04085941 0.30434934 0.10928719
-0.01854281 0.29917562 0.1083849
-0.01877468 0.29893145 0.108483
-0.01853622 0.29882418 0.10866189
-0.01829546 0.29905903 0.10854681
-0.01886482 0.29936808 0.10818241
-0.01906201 0.29909102 0.10829325
-0.01830906 0.298761 0.10881129
-0.03841315 0.29710235 0.10990716
-0.04034352 0.29760709 0.10871078
-0.03623757 0.29676512 0.11090515
-0.03395429 0.29667594 0.11153696
-0.03150545 0.29683863 0.11176768
-0.02903062 0.29720401 0.11159632
-0.03459212 0.29310545 0.11145176
-0.03726058 0.29316735 0.11051657
-0.03762521 0.29188832 0.10984111
-0.03492526 0.29183032 0.11084969
-0.03809111 0.29055663 0.10923387
-0.04056512 0.2908758 0.10797007
-0.04118898 0.28940699 0.10747619
-0.04449882 0.29214465 0.1051827
-0.04518817 0.2906404 0.10465538
-0.04336793 0.28992747 0.10607009
-0.04271006 0.29142509 0.10658446
-0.04611819 0.28899837 0.10417811
-0.04426624 0.2882705 0.10564901
-0.04202561 0.28776196 0.10711375
-0.04594083 0.29296869 0.1038325
-0.04666333 0.29149085 0.10330335
-0.04879399 0.29091443 0.10149635
-0.0476055 0.2898958 0.10277819
-0.04785208 0.29243173 0.10206493
-0.04709594 0.29384445 0.10259655
-0.04593927 0.29631945 0.10364275
-0.04645998 0.29514146 0.1031074
-0.04536976 0.2943255 0.10438367
-0.04492147 0.2955657 0.10497412
-0.04398231 0.29353239 0.10578011
-0.04358444 0.29481437 0.106424
-0.04184577 0.29411105 0.10790332
-0.04222749 0.29281294 0.10722133
-0.04009166 0.29223825 0.1086099
-0.03971729 0.29353169 0.10931094
-0.03208262 0.29212625 0.1115738
-0.03179731 0.29340049 0.11208276
-0.02924283 0.29272779 0.11199346
-0.02901392 0.29401495 0.11238138
-0.02961293 0.29141383 0.1115963
-0.03009197 0.29001324 0.11134399
-0.03063805 0.28844242 0.11126438
-0.02727368 0.29076347 0.11166427
-0.02687729 0.29219488 0.11181627
-0.02657849 0.2935428 0.11208774
-0.02642349 0.29483916 0.11231341
-0.02223044 0.29525264 0.11168354
-0.02230744 0.2964329 0.11156294
-0.02416109 0.29570683 0.1119944
-0.02421463 0.2944356 0.11194698
-0.02469364 0.29161233 0.11178993
-0.02440912 0.29307005 0.11182592
-0.02240859 0.29247228 0.11179203
-0.02228088 0.29392174 0.11171251
-0.02083366 0.29694419 0.11118027
-0.02062478 0.29591514 0.11144287
-0.0205012 0.29469748 0.11157767
-0.02042785 0.29332222 0.11173459
-0.02257319 0.29090699 0.11199211
-0.02038747 0.29180199 0.11200758
-0.0184254 0.29278516 0.1120417
-0.02502313 0.29003345 0.11190351
-0.02773158 0.28918976 0.111679
-0.01575591 0.29712669 0.11157104
-0.01556124 0.29535597 0.11210171
-0.01486099 0.29672993 0.11200698
-0.01674151 0.29396454 0.11211924
-0.01580275 0.30206086 0.11083508
-0.01494363 0.30262306 0.11127826
-0.01605103 0.30424267 0.1117466
-0.01677515 0.30359196 0.11111938
-0.0179023 0.30222434 0.11067362
-0.01828175 0.30159177 0.11043063
-0.01752387 0.30051309 0.11008512
-0.0171749 0.30094015 0.11052675
-0.01702235 0.29966034 0.10992649
-0.01672206 0.29989404 0.11043609
-0.01645503 0.29754366 0.11119575
-0.01539213 0.29816185 0.11140745
-0.01610771 0.29829173 0.11102198
-0.0168703 0.29895712 0.11002315
-0.01653505 0.29905497 0.11048858
-0.01663895 0.29839606 0.11062702
-0.01704181 0.29844349 0.11020814
-0.01522135 0.29928867 0.11118803
-0.01599855 0.29916171 0.11088891
-0.01446033 0.29806921 0.11183075
-0.01424797 0.29944707 0.11152163
-0.01530168 0.30058601 0.11091985
-0.01434704 0.30097362 0.11122474
-0.01612715 0.30022536 0.11076903
-0.01656237 0.30149874 0.11067629
-0.02229286 0.306305 0.1119323
-0.02246271 0.30548773 0.1119458
-0.02320158 0.30413256 0.11125552
-0.02505114 0.30496318 0.11186503
-0.02714808 0.30564495 0.11230831
-0.02936873 0.30631966 0.11317023
-0.03170254 0.30648576 0.11326904
-0.02704769 0.30589937 0.112817
-0.02486077 0.30523672 0.11227251
-0.02291414 0.30436907 0.11160323
-0.0180655 0.29903983 0.10866091
-0.01802222 0.29937414 0.10846064
-0.0181867 0.29927588 0.10843644
-0.0186975 0.29971391 0.10807539
-0.01836559 0.29944951 0.10828156
-0.01822203 0.29973387 0.10824543
-0.0185826 0.30011108 0.10805117
-0.04872363 0.29762663 0.10030452
-0.04807333 0.29679304 0.10102502
-0.04742818 0.29780457 0.10154192
-0.04806662 0.29854215 0.10086142
-0.04425472 0.30232485 0.10564411
-0.04488224 0.30163002 0.10438846
-0.04485722 0.30255689 0.10584321
-0.04552363 0.30180168 0.10445359
-0.04512129 0.3009642 0.10349264
-0.04501765 0.30037107 0.10344743
-0.04314296 0.29876304 0.10622726
-0.04405111 0.29930475 0.10509481
-0.04191802 0.29818643 0.10745224
-0.01568961 0.32726415 0.12501878
-0.01253274 0.32729825 0.1252975
-0.01291967 0.33169685 0.12416197
-0.01614789 0.33165056 0.1238301
-0.01884246 0.32717911 0.12451753
-0.01935917 0.33153859 0.12326915
-0.02196818 0.32705195 0.12380173
-0.02252716 0.33137908 0.12250667
-0.02504579 0.3268978 0.12289287
-0.02561672 0.33117004 0.12153164
-0.03669671 0.32608409 0.11773649
-0.03712167 0.3298929 0.11600239
-0.03944415 0.32572738 0.11616878
-0.03983262 0.32940864 0.11433613
-0.04212688 0.32525161 0.11448715
-0.042481 0.32881531 0.11255506
-0.04472354 0.32462461 0.1126713
-0.04506325 0.32808589 0.11065575
-0.0472175 0.32382226 0.11072031
-0.04756487 0.32719394 0.10862834
-0.04958381 0.3228362 0.10861807
-0.04994707 0.32611592 0.10644761
-0.05176987 0.32164123 0.10634815
-0.05216287 0.32481776 0.10408992
-0.05375846 0.32021644 0.10393407
-0.05418672 0.32326839 0.10157331
-0.05548976 0.31854308 0.10138994
-0.05597629 0.32143558 0.09892284
-0.05697582 0.31660701 0.09878713
-0.05755465 0.31930309 0.0962142
-0.05821823 0.31440297 0.09619444
-0.05892626 0.31686272 0.09351193
-0.05922084 0.31192195 0.09369216
-0.06007281 0.31409865 0.0908825
-0.06124105 0.30282984 0.08767324
-0.06066107 0.30612466 0.08933678
-0.06185392 0.30759224 0.08625013
-0.06261727 0.30387251 0.08444443
-0.06183085 0.29931392 0.08647175
-0.06340311 0.29989023 0.08308849
-0.06244172 0.29564762 0.08578101
-0.06420082 0.29571771 0.08222968
-0.06300529 0.29190528 0.08559448
-0.06490438 0.2914207 0.08186818
-0.06335555 0.28102904 0.08760758
-0.06352507 0.28451552 0.08655205
-0.06541099 0.28280276 0.08257704
-0.06512099 0.27875123 0.08362828
-0.0610791 0.27201121 0.09226728
-0.06212837 0.27475456 0.09052159
-0.06366815 0.27160505 0.08665456
-0.0625746 0.26854102 0.08844494
-0.05976532 0.26949254 0.09411101
-0.06126507 0.26575522 0.0903062
-0.05818377 0.26715713 0.09598666
-0.05976238 0.26317846 0.09217268
-0.05634243 0.2649819 0.09787285
-0.05807949 0.26076303 0.09402099
-0.05431294 0.26290645 0.09974243
-0.05626515 0.25846562 0.09583248
-0.04678864 0.25432558 0.10560581
-0.04906255 0.24985723 0.1021752
-0.04517321 0.25238322 0.10686064
-0.04740939 0.24794335 0.1036571
-0.05981229 0.30206172 0.09040108
-0.05939833 0.30494818 0.09194424
-0.05833154 0.3015228 0.09263469
-0.05804054 0.30402279 0.094071
-0.05686532 0.30116709 0.09443369
-0.05665405 0.30332003 0.09577063
-0.06020995 0.29898667 0.0893117
-0.05857613 0.29885241 0.09163255
-0.05699872 0.29886133 0.09349781
-0.0093007 0.28743403 0.12861405
-0.00937925 0.28605957 0.12949721
-0.00813946 0.2869897 0.1311884
-0.00806289 0.28832878 0.13029342
-0.01050354 0.28654972 0.12698434
-0.01057291 0.28514362 0.12785881
-0.01172582 0.28564498 0.12538896
-0.01178752 0.28422465 0.12625251
-0.01298323 0.28468243 0.12380377
-0.01303083 0.28326532 0.1246684
-0.01431784 0.28222893 0.12308017
-0.01432446 0.28079612 0.12393949
-0.01308375 0.28179508 0.12551845
-0.01430257 0.28363584 0.1222143
-0.01904783 0.27846508 0.1185621
-0.01876508 0.27710914 0.11937679
-0.01926199 0.27989927 0.1177638
-0.02120973 0.27688864 0.11742052
-0.02078833 0.2754751 0.11819418
-0.02152151 0.27840772 0.11665801
-0.02659325 0.27298202 0.11583694
-0.02590232 0.27132953 0.1165775
-0.02317791 0.27356106 0.11727236
-0.02373659 0.27508311 0.11653201
-0.02707914 0.27474987 0.11510145
-0.02413542 0.27671747 0.11580249
-0.02971987 0.27052609 0.11521086
-0.02888658 0.26873525 0.11597196
-0.03033172 0.27244229 0.11444822
-0.03303457 0.26768399 0.11448622
-0.03203237 0.26577629 0.11527186
-0.03383507 0.26972715 0.11370613
-0.03638061 0.26440721 0.1134476
-0.03519513 0.26244908 0.11425339
-0.03743418 0.266522 0.11265368
-0.03960303 0.26071431 0.11186567
-0.03823339 0.25877453 0.11274679
-0.04092005 0.26280857 0.11100407
-0.04256019 0.25666925 0.10965072
-0.04105232 0.25479493 0.11069435
-0.0440769 0.25868411 0.10862289
-0.0435836 0.250568 0.10813424
-0.01129217 0.29076523 0.12196516
-0.01015951 0.29153412 0.12360522
-0.00990181 0.29593374 0.11882682
-0.0102834 0.29456327 0.11956127
-0.00903671 0.29636166 0.12051059
-0.00933969 0.29509241 0.12124995
-0.00953695 0.29739757 0.11814515
-0.00873653 0.29772477 0.11980047
-0.00925137 0.29899329 0.11754071
-0.00848568 0.29922137 0.11914572
-0.00912754 0.30074816 0.11703783
-0.00836887 0.30089507 0.11858462
-0.00929399 0.30264511 0.11672012
-0.00850002 0.3027219 0.11819516
-0.01091001 0.30652791 0.11696394
-0.00987892 0.30460994 0.11667208
-0.00982105 0.30653898 0.11827416
-0.00897286 0.30463626 0.11806385
-0.01232217 0.30832307 0.11763349
-0.01097253 0.30834402 0.11885515
-0.02034705 0.31934027 0.12409739
-0.02334897 0.31925062 0.12328366
-0.02199884 0.31616482 0.12210554
-0.01913298 0.31627358 0.12304622
-0.01740671 0.31943057 0.12474165
-0.01639247 0.31635578 0.12378669
-0.02126913 0.32298431 0.12437955
-0.02432657 0.32287661 0.12354869
-0.01821171 0.32308634 0.12503081
-0.04910315 0.3198539 0.11026706
-0.04676177 0.32074996 0.11227363
-0.05125117 0.31875988 0.10809575
-0.04834299 0.31715916 0.11124151
-0.04603474 0.31796359 0.11310114
-0.05045079 0.31616633 0.10921855
-0.0473828 0.31481805 0.11160819
-0.0451372 0.31554986 0.11330916
-0.04942362 0.31391063 0.10975475
-0.04881662 0.27240183 0.10589897
-0.04216614 0.27697224 0.10905791
-0.04606176 0.27686003 0.10728843
-0.0517222 0.27353442 0.10381071
-0.0491562 0.27748486 0.10539859
-0.05181792 0.26757226 0.1032339
-0.05420235 0.26927807 0.10123683
-0.05274542 0.3283685 0.10157661
-0.05479193 0.32666892 0.09893213
-0.0566313 0.32465778 0.09615994
-0.05319628 0.31746115 0.10579541
-0.05486315 0.3159384 0.1033677
-0.05232644 0.31498535 0.10705646
-0.05393713 0.31361488 0.10478318
-0.05122899 0.31283724 0.10776288
-0.05277684 0.3116131 0.10566471
-0.05398526 0.2749771 0.1018334
-0.05156557 0.27854619 0.1035067
-0.05576203 0.27667871 0.09993078
-0.0534218 0.27991171 0.10166414
-0.05623522 0.27112349 0.09927804
-0.05790977 0.27316007 0.09737464
-0.00705702 0.29845774 0.12327898
-0.00587832 0.29890323 0.12494787
-0.00573551 0.30008683 0.12416124
-0.00687848 0.29974167 0.12252587
-0.0079577 0.29806686 0.1215292
-0.00774525 0.2994636 0.12082349
-0.06103961 0.29253838 0.08866331
-0.05907568 0.2932563 0.09111432
-0.05882476 0.29606873 0.09112641
-0.06063305 0.2957869 0.08873779
-0.05720874 0.29401934 0.09303161
-0.05710771 0.296456 0.09302726
-0.02391972 0.28382245 0.11339288
-0.02676469 0.28252934 0.11279613
-0.0056287 0.30141103 0.12339882
-0.00676637 0.30118485 0.12182277
-0.00724676 0.2973018 0.12404248
-0.00603634 0.29782993 0.12573756
-0.00618304 0.29681228 0.12651594
-0.00743457 0.29620673 0.12480987
-0.00762912 0.30102684 0.12018915
-0.008199 0.29680571 0.12226917
-0.00843863 0.29562822 0.12302239
-0.01917122 0.28616596 0.11492044
-0.02139262 0.28503252 0.11406809
-0.05709434 0.30843321 0.09789203
-0.05578033 0.30711527 0.09929852
-0.05504576 0.30875528 0.1013614
-0.05631464 0.31034366 0.10012179
-0.05826112 0.31003884 0.09603532
-0.05739627 0.3122323 0.09841305
-0.0562727 0.31419516 0.10088904
-0.05526934 0.31206361 0.1024496
-0.05405447 0.31025102 0.10351236
-0.01160616 0.31951094 0.12549844
-0.01101079 0.31641326 0.12472277
-0.00831613 0.31641152 0.12502055
-0.0087272 0.31951591 0.12568442
-0.00802938 0.30818551 0.12109458
-0.00635206 0.30806298 0.12216044
-0.01450047 0.31948403 0.12520689
-0.01370109 0.31639604 0.12433527
-0.00954571 0.30829713 0.11999285
-0.02996418 0.28115338 0.11218748
-0.03359241 0.27969595 0.11145766
-0.03773039 0.27819179 0.11047863
-0.03822919 0.31929136 0.1177108
-0.04094513 0.31901828 0.11631587
-0.04012466 0.31647879 0.11616264
-0.03741008 0.31668831 0.11733
-0.03542031 0.31941479 0.11897772
-0.03458885 0.31673604 0.11837098
-0.04355501 0.31858139 0.11478636
-0.04270361 0.31610255 0.11482121
-0.05919443 0.28525272 0.09348332
-0.05698002 0.28715375 0.0953908
-0.05719669 0.28933211 0.09429026
-0.0593284 0.28780032 0.09236617
-0.05482979 0.28148908 0.09988999
-0.05713264 0.27856969 0.09810451
-0.05585723 0.28322647 0.09822787
-0.05813745 0.28062629 0.09638787
-0.00904423 0.29227578 0.12533662
-0.00786048 0.2930311 0.12710535
-0.0416554 0.32197975 0.11581391
-0.03894526 0.32234272 0.11737635
-0.03615895 0.32257372 0.11881561
-0.04426443 0.32145518 0.11411275
-0.06135649 0.28320071 0.09089898
-0.06147651 0.28618817 0.08980975
-0.05924414 0.27537668 0.09553468
-0.06026255 0.27777919 0.09380487
-0.01515366 0.32315478 0.12548059
-0.01210577 0.32318507 0.12573528
-0.00740824 0.30637475 0.12080012
-0.00595156 0.30627602 0.12202174
-0.00697681 0.30455637 0.12085313
-0.00569736 0.30452972 0.1222284
-0.00866928 0.30647645 0.1195461
-0.00803627 0.30460644 0.11945604
-0.00908753 0.32318965 0.12587282
-0.00940701 0.32729632 0.1254151
-0.00769775 0.30275784 0.11970049
-0.0067717 0.30280338 0.12122771
-0.00559339 0.30289274 0.12271769
-0.06101178 0.31660846 0.08769968
-0.05975898 0.31964645 0.09048685
-0.05829408 0.32232301 0.09332905
-0.02456693 0.23371958 0.12182216
-0.02372342 0.23488119 0.12342853
-0.02462813 0.23572852 0.1229873
-0.02558546 0.23422665 0.12146877
-0.00327701 0.32724671 0.12544532
-0.00338791 0.33163319 0.1243189
-0.00631777 0.32727343 0.12545347
-0.00652825 0.33165861 0.12433372
-0.00970745 0.33169388 0.12430606
-0.04577327 0.2461518 0.10517173
-0.04198674 0.24887089 0.10943955
-0.04413011 0.24448794 0.10674293
-0.04035098 0.24728449 0.11077924
-0.04243428 0.24295859 0.10835535
-0.0386852 0.24582355 0.11211128
-0.0406862 0.24158719 0.10997144
-0.03701378 0.24451152 0.11341517
-0.03892653 0.24040113 0.11156166
-0.0353799 0.24332979 0.11470643
-0.03718977 0.2393785 0.11312119
-0.03384417 0.24222921 0.1160467
-0.03554417 0.23846756 0.11468353
-0.03242972 0.24121098 0.11741514
-0.03401577 0.23765707 0.11618793
-0.03111059 0.24027623 0.11868449
-0.03258861 0.2369473 0.11752423
-0.02985071 0.23941167 0.11975951
-0.0312331 0.23633097 0.11860394
-0.02865338 0.2386134 0.12063854
-0.02995718 0.23580873 0.11943834
-0.02752137 0.23787125 0.1213459
-0.02876785 0.23537288 0.12008541
-0.02647279 0.23715792 0.12194257
-0.02765287 0.23499365 0.12060332
-0.02551512 0.23646172 0.12248405
-0.02660049 0.23462737 0.12105609
-0.00511299 0.33601765 -0.07121044
-0.00518131 0.34414173 -0.06986245
-0.00992799 0.33602424 -0.07070929
-0.01472478 0.33604258 -0.06996305
-0.01492914 0.34412994 -0.06855798
-0.01006802 0.34413567 -0.06934674
-0.01951795 0.33605496 -0.06892774
-0.01977199 0.34410675 -0.06751453
-0.02429023 0.33604609 -0.06756402
-0.02456392 0.34404299 -0.0661088
-0.02900382 0.33599438 -0.06583511
-0.02931394 0.34393676 -0.06437491
-0.03365562 0.33588469 -0.06378568
-0.03400078 0.34377515 -0.06231652
-0.03821225 0.33569144 -0.06135966
-0.03859645 0.34353898 -0.05990439
-0.05575787 0.34167825 -0.04644241
-0.05527938 0.33401847 -0.04783914
-0.0590775 0.33335561 -0.04339993
-0.0595294 0.34095511 -0.04199588
-0.06259861 0.33258323 -0.03850817
-0.06311089 0.34014507 -0.03717341
-0.06586065 0.33171244 -0.03322189
-0.06636867 0.33924297 -0.03192156
-0.06885291 0.33073735 -0.027537
-0.06935906 0.33825647 -0.0262761
-0.07149523 0.32967193 -0.02144391
-0.07202254 0.33721053 -0.02023548
-0.07378836 0.3285409 -0.01495588
-0.07427339 0.33614563 -0.01382255
-0.07566302 0.32742158 -0.00806246
-0.07604861 0.33516783 -0.00713493
-0.07716933 0.32661068 -0.00089393
-0.07818994 0.32672351 0.00595615
-0.07830347 0.33400917 0.00619061
-0.07740519 0.33442466 -0.00038782
-0.07865277 0.32690687 0.01214119
-0.07870153 0.33369898 0.01244835
-0.07866162 0.3267894 0.017904
-0.07869409 0.3333135 0.01843309
-0.07756991 0.33211177 0.03016257
-0.07759009 0.325517 0.02924117
-0.07648662 0.3244251 0.0352571
-0.07648345 0.33139933 0.03628732
-0.07509924 0.32302501 0.04180198
-0.07503075 0.3307409 0.04307545
-0.07288711 0.33028837 0.05188356
-0.07342947 0.32101224 0.04886234
-0.0716821 0.31785664 0.05558341
-0.07087865 0.32470659 0.05912678
-0.0700128 0.31459911 0.06159469
-0.06912368 0.3205971 0.06483477
-0.06845012 0.31166778 0.06706465
-0.06746173 0.31714016 0.0699387
-0.06694777 0.30913065 0.07207958
-0.06590734 0.31415232 0.07460859
-0.06545908 0.30699554 0.07663704
-0.06444407 0.31158305 0.07886345
-0.0640139 0.30525138 0.0807538
-0.06309381 0.30940256 0.08273732
-0.00502101 0.32802078 -0.07185537
-0.00975351 0.32803985 -0.071425
-0.01446303 0.32807231 -0.07067319
-0.01918264 0.32811158 -0.06963637
-0.02389924 0.32814284 -0.06832221
-0.02856343 0.32813767 -0.06664776
-0.03316659 0.32807753 -0.06462437
-0.03770989 0.32793879 -0.06227736
-0.05465306 0.32648824 -0.04882157
-0.05842641 0.32587586 -0.04439137
-0.06190037 0.32516991 -0.03949612
-0.06514896 0.32434872 -0.0342344
-0.06810599 0.32340581 -0.02856444
-0.07076587 0.32233109 -0.02252107
-0.073036 0.32111768 -0.01606594
-0.0749367 0.31964233 -0.00910857
-0.07659031 0.31745207 -0.0007705
-0.07784168 0.3196177 0.00664628
-0.07834473 0.32047202 0.0123757
-0.07838103 0.32059415 0.01762385
-0.0774184 0.31909464 0.0281347
-0.076409 0.31756282 0.0338253
-0.07514865 0.31560457 0.0399953
-0.073647 0.31333654 0.04648309
-0.07215313 0.31077614 0.05288976
-0.07074829 0.30816328 0.05895928
-0.06938955 0.30575962 0.06465797
-0.06797978 0.30369932 0.06995586
-0.06649093 0.30204216 0.07481056
-0.06495243 0.30078511 0.07919229
-0.00491385 0.26253831 0.14037387
-0.00618568 0.26371281 0.14007778
-0.00516145 0.26454915 0.13962141
-0.00421562 0.26318564 0.13979659
-0.00562243 0.26185058 0.14211518
-0.00735901 0.2629816 0.14129828
-0.00683681 0.26315551 0.14055186
-0.00535647 0.26203461 0.14102462
-0.00598529 0.26255484 0.14371063
-0.00790511 0.26346072 0.14237928
-0.00640156 0.26424528 0.1453048
-0.00846865 0.26480994 0.14349988
-0.00677284 0.26677938 0.14640842
-0.00897259 0.26694179 0.14428976
-0.00690404 0.26983658 0.14654722
-0.00919099 0.26960592 0.14433246
-0.00669521 0.27288323 0.14563106
-0.00896874 0.27234904 0.14349743
-0.00631946 0.27562452 0.14411168
-0.00852034 0.27490991 0.14212854
-0.00563917 0.28029401 0.14075752
-0.00765196 0.27944292 0.13903369
-0.00805678 0.2772664 0.14058521
-0.0059483 0.27807394 0.14242125
-0.0053947 0.28231022 0.13919504
-0.00731956 0.28144279 0.13754862
-0.00523058 0.28414671 0.13779665
-0.00708522 0.28327973 0.13618767
-0.00512396 0.2858183 0.13655644
-0.00692527 0.28495394 0.13496643
-0.00505018 0.28734334 0.13544182
-0.0068082 0.28648425 0.13387681
-0.00499908 0.28874781 0.13442865
-0.00672909 0.28790277 0.13289054
-0.00495254 0.29005462 0.13350322
-0.00666755 0.28922451 0.13198282
-0.0047888 0.294492 0.13026653
-0.00648999 0.29379199 0.12879805
-0.00444447 0.29831054 0.12718859
-0.00455397 0.29735418 0.12798063
-0.00433035 0.2993227 0.12637616
-0.00422602 0.30043593 0.12556276
-0.00413477 0.30166225 0.12475509
-0.00408446 0.30302426 0.12401055
-0.00425428 0.30621362 0.1231193
-0.00412193 0.30454891 0.12343796
-0.00448055 0.30796848 0.12311738
-0.00587326 0.31950582 0.12580853
-0.00562305 0.31639996 0.12527154
-0.00610418 0.32317325 0.12593893
-0.00674964 0.33630498 0.12277895
-0.01000864 0.33633342 0.12269409
-0.00697704 0.34129034 0.12104331
-0.0103221 0.34128648 0.12085364
-0.00720902 0.34670599 0.11924024
-0.01065479 0.34665897 0.11895935
-0.00743668 0.35254784 0.11726164
-0.01099761 0.35245084 0.11691211
-0.00764485 0.35865456 0.11478893
-0.01131257 0.35850824 0.11439561
-0.00781644 0.36480653 0.11163073
-0.01156947 0.36460131 0.11118083
-0.00794352 0.3708611 0.10773993
-0.01175302 0.37059703 0.10724665
-0.00802998 0.37672862 0.10320578
-0.01186854 0.37640594 0.10268679
-0.00808092 0.38232662 0.09813117
-0.01192699 0.38194629 0.09760905
-0.00781867 0.40014125 0.07365921
-0.01154586 0.39970557 0.07326863
-0.01170146 0.39604004 0.07982657
-0.007926 0.39647652 0.08025831
-0.00770019 0.40324824 0.06686693
-0.01137624 0.40283293 0.06653173
-0.00741844 0.40966943 0.04588256
-0.0109583 0.40926517 0.04571044
-0.01106575 0.4075472 0.05271698
-0.00749123 0.40794927 0.05294466
-0.00738028 0.41103205 0.03876072
-0.01089893 0.41061184 0.03864553
-0.00738123 0.41205264 0.03159006
-0.01090233 0.41162946 0.03153147
-0.00751157 0.41308207 0.01708195
-0.01109877 0.41263666 0.0171555
-0.01096742 0.41231432 0.02437083
-0.00742332 0.4127348 0.02436225
-0.00764645 0.41303981 0.00973142
-0.0112946 0.41258644 0.009879
-0.00782196 0.41250079 0.00231889
-0.0115564 0.41205506 0.00254185
-0.00804504 0.41137993 -0.00513116
-0.01189139 0.41093841 -0.00482482
-0.00831265 0.4096238 -0.01258524
-0.01228435 0.40918281 -0.01219404
-0.00860659 0.40711172 -0.0199679
-0.01272036 0.40669738 -0.01950113
-0.00889909 0.40371874 -0.02716729
-0.0131659 0.40335462 -0.02663294
-0.00918223 0.39947237 -0.03409353
-0.01359404 0.39913776 -0.03349033
-0.00945078 0.39441401 -0.0406427
-0.01400038 0.39412643 -0.03998135
-0.00969695 0.38863822 -0.04671366
-0.01436576 0.3884006 -0.04601031
-0.01017573 0.36018335 -0.06451893
-0.01508588 0.3601179 -0.06374623
-0.01504865 0.36782504 -0.06037022
-0.0101484 0.36792566 -0.06113353
-0.01015154 0.35222514 -0.06726889
-0.01504816 0.3521902 -0.06648221
-0.00955187 0.32032976 -0.07143331
-0.01416394 0.32037149 -0.07069983
-0.00912128 0.30601784 -0.06983682
-0.0135292 0.30609157 -0.0691885
-0.01386341 0.31302474 -0.07020938
-0.00933796 0.31297398 -0.07085997
-0.00888821 0.2994942 -0.06834898
-0.0131737 0.29958865 -0.06774529
-0.0086383 0.29342114 -0.06655256
-0.01280908 0.29353079 -0.06600972
-0.00839094 0.28778685 -0.06460113
-0.01244023 0.2878998 -0.0640584
-0.00814141 0.28257684 -0.06256446
-0.01208109 0.28267434 -0.06204017
-0.00792082 0.27774174 -0.06050095
-0.01176047 0.27781372 -0.06001958
-0.007716 0.27323543 -0.05841021
-0.01144532 0.27328588 -0.05795628
-0.00751329 0.26896868 -0.05632615
-0.01114734 0.26901289 -0.05587858
-0.00733143 0.26487225 -0.05429064
-0.01086281 0.26489735 -0.0538714
-0.00714107 0.26089832 -0.05232091
-0.01057842 0.26091328 -0.05191409
-0.00694794 0.25702597 -0.05042073
-0.01029703 0.25703368 -0.0500209
-0.00675682 0.25323878 -0.048645
-0.01001114 0.25324015 -0.04824479
-0.00657179 0.24949213 -0.04704135
-0.00973833 0.24948527 -0.04664968
-0.00640803 0.24573443 -0.04563582
-0.00949696 0.24572547 -0.04525758
-0.00625437 0.24193588 -0.04441575
-0.00927508 0.24193007 -0.04404363
-0.00610497 0.23806135 -0.04342199
-0.00906847 0.23806189 -0.04307279
-0.00597828 0.23411252 -0.04266038
-0.00888983 0.23412331 -0.04233675
-0.005887 0.23011044 -0.04211477
-0.00874389 0.23013837 -0.04180501
-0.00583317 0.22610918 -0.04176813
-0.00864176 0.22615063 -0.04145493
-0.00576802 0.21415346 -0.04152974
-0.00855267 0.21419476 -0.04122943
-0.00854325 0.21819059 -0.04118493
-0.00576075 0.21814421 -0.0414911
-0.00579875 0.21012317 -0.04166796
-0.00855645 0.21016369 -0.04137438
-0.00582275 0.20602041 -0.0418993
-0.00855864 0.20606198 -0.04161292
-0.00587317 0.20179958 -0.04224767
-0.00861423 0.201854 -0.0419692
-0.00593369 0.19742575 -0.04275251
-0.00871843 0.19749265 -0.0424718
-0.00600847 0.19288138 -0.04346324
-0.00886145 0.19296637 -0.04315796
-0.00614664 0.18815531 -0.04440429
-0.00907936 0.18826333 -0.04407467
-0.00636435 0.18325472 -0.0457429
-0.00939339 0.18337092 -0.04537125
-0.00663484 0.17826174 -0.04752187
-0.00978455 0.17835938 -0.0470964
-0.00694436 0.17338855 -0.0497415
-0.01024456 0.17344862 -0.0492885
-0.00727803 0.16866551 -0.05227503
-0.01073245 0.16868865 -0.05180808
-0.00280978 0.28938662 0.13554698
-0.00283905 0.2879896 0.13658864
-0.00277998 0.29067301 0.13459101
-0.00824538 0.28556068 0.13215485
-0.00950209 0.28461098 0.13043475
-0.01068847 0.28367125 0.12875814
-0.01187358 0.28274105 0.12712552
-0.04931619 0.24342573 0.10022524
-0.04763706 0.24162484 0.10196035
-0.05099829 0.24535482 0.09854896
-0.0509239 0.23896881 0.09671771
-0.04919196 0.23713142 0.09866048
-0.05261811 0.24094481 0.09485502
-0.05225593 0.23463111 0.0932141
-0.05046288 0.2327433 0.09535099
-0.05396057 0.23666123 0.09117786
-0.05334009 0.23022131 0.08961036
-0.05148387 0.2282665 0.09192
-0.05507595 0.23231338 0.08743017
-0.05431156 0.21731314 0.07758885
-0.05230444 0.21509478 0.08009207
-0.05249649 0.21928105 0.0842766
-0.05446442 0.22141997 0.08176537
-0.05619167 0.21958277 0.07522889
-0.05629966 0.22364778 0.07941947
-0.05355427 0.21353672 0.07327503
-0.05151029 0.21129569 0.07574249
-0.05546663 0.21580147 0.07090784
-0.05210495 0.21019947 0.06882192
-0.05004257 0.20801387 0.07125393
-0.05404549 0.21238749 0.0664535
-0.05012179 0.20727804 0.0643882
-0.04806795 0.20520302 0.06678073
-0.05205827 0.20934244 0.06202503
-0.04599219 0.20128363 0.05603715
-0.0440641 0.19943938 0.05827276
-0.04596245 0.20247306 0.06244377
-0.0479563 0.20443209 0.06011808
-0.04783491 0.20307727 0.05377858
-0.04983891 0.20636682 0.0577896
-0.04459002 0.19758533 0.05220527
-0.04262953 0.19590209 0.05436142
-0.04650499 0.19920572 0.05002229
-0.04400385 0.19328489 0.04888235
-0.04189067 0.19178619 0.05093013
-0.04609613 0.19473246 0.04678952
-0.04418631 0.1885313 0.04628479
-0.04191148 0.18717204 0.04821741
-0.04642862 0.18985247 0.04427362
-0.04495875 0.18348756 0.04428473
-0.04257836 0.18220095 0.0461496
-0.04729164 0.18473373 0.04228873
-0.04613197 0.17823291 0.04249987
-0.04373617 0.17699341 0.04439267
-0.04847783 0.17943847 0.04044123
-0.04753266 0.17285324 0.04064848
-0.04517865 0.17165005 0.04263208
-0.04983861 0.17405501 0.03849555
-0.04908502 0.16749511 0.03865135
-0.04677499 0.1663002 0.04073321
-0.05132274 0.1687207 0.0363953
-0.05070135 0.16220923 0.03645831
-0.04843787 0.16097688 0.0386635
-0.05286036 0.16348166 0.03409571
-0.05234852 0.1569649 0.03406428
-0.05012187 0.15568186 0.03638654
-0.05443043 0.15827517 0.03160907
-0.00204987 0.25682163 0.13444842
-0.00242728 0.25634926 0.13390485
-0.00179761 0.25715269 0.13505544
-0.00365803 0.2573108 0.13401807
-0.00433017 0.25688897 0.13339907
-0.00319765 0.25760713 0.13469457
-0.00612806 0.25859399 0.13289058
-0.00702298 0.25823913 0.13203778
-0.00584962 0.2575399 0.13274485
-0.00501886 0.25792403 0.13347615
-0.00541492 0.25887275 0.1337029
-0.00440648 0.2582012 0.13421903
-0.00747207 0.26008992 0.13155265
-0.00839081 0.25971583 0.1305487
-0.00787128 0.25896642 0.1312999
-0.00696256 0.25932921 0.13224316
-0.00666947 0.26039487 0.13254253
-0.00618792 0.25961897 0.13313684
-0.00765704 0.26086798 0.13086344
-0.00859942 0.26047352 0.1298195
-0.00682707 0.26117112 0.13197038
-0.0076141 0.26169955 0.13021951
-0.0086463 0.26127625 0.12917038
-0.00671838 0.26199408 0.13147707
-0.01094168 0.26644201 0.13116526
-0.01180729 0.26483083 0.1293978
-0.01083284 0.26500617 0.12825903
-0.00966428 0.2666851 0.12973219
-0.00925948 0.26744929 0.13333597
-0.00767644 0.26767701 0.1317549
-0.01206949 0.26437555 0.13330146
-0.01291622 0.26334451 0.13145987
-0.01242703 0.26414313 0.13052424
-0.01162854 0.2654444 0.13238678
-0.01078903 0.26497233 0.1352803
-0.01023121 0.26623249 0.13449182
-0.01315376 0.26328902 0.134831
-0.01422873 0.26243577 0.13302598
-0.01347113 0.26270366 0.13227885
-0.01253963 0.26360274 0.13408688
-0.01184667 0.26379949 0.13666771
-0.01128462 0.2641137 0.13597667
-0.01395034 0.26350371 0.13551089
-0.01520587 0.26271065 0.13364553
-0.01252745 0.26400712 0.13735101
-0.01482456 0.26436181 0.13599708
-0.01619363 0.2636463 0.13400713
-0.01330794 0.26484134 0.1379166
-0.01546283 0.26587516 0.13607889
-0.01686814 0.26520551 0.13396638
-0.01392127 0.26636726 0.13811122
-0.01558251 0.26781504 0.13564214
-0.01698051 0.26716062 0.13347363
-0.01405876 0.26835748 0.13774223
-0.01511719 0.26986585 0.13475094
-0.01647673 0.26921296 0.13259836
-0.01366592 0.27047273 0.13686828
-0.01424853 0.27184211 0.13359244
-0.01552389 0.27117247 0.13149758
-0.01292869 0.27253295 0.13568444
-0.01230961 0.27764306 0.13003644
-0.01331015 0.27679024 0.12818501
-0.01365815 0.27489132 0.12918083
-0.01264127 0.27569066 0.13112988
-0.01128086 0.27854626 0.13194031
-0.01162405 0.27656841 0.13313381
-0.01213468 0.27948759 0.12901208
-0.01319394 0.27859018 0.12726996
-0.01104874 0.28040571 0.13080202
-0.01199214 0.2811753 0.12803797
-0.01313239 0.28025079 0.12637934
-0.01085325 0.28210791 0.12973467
-0.023019 0.33590249 0.12068839
-0.02612693 0.3356434 0.11968317
-0.01981679 0.33610027 0.12147043
-0.02353322 0.34069405 0.11860467
-0.02667972 0.3403836 0.11757438
-0.02029311 0.34093877 0.11942294
-0.02419405 0.3459086 0.11654661
-0.02740798 0.34553774 0.11548638
-0.02087934 0.34619979 0.11739119
-0.02495839 0.35150766 0.11435056
-0.02825076 0.35105918 0.11324007
-0.02155238 0.35186346 0.11523521
-0.02566197 0.35733073 0.1116423
-0.02903268 0.3567964 0.11049026
-0.02216774 0.35775295 0.11257292
-0.0261647 0.36312055 0.10813861
-0.02958262 0.36250371 0.10695539
-0.02262089 0.36361691 0.10912029
-0.0264681 0.36876433 0.10394429
-0.02989682 0.36806022 0.10273002
-0.02291184 0.36935194 0.10497924
-0.02661496 0.37422592 0.09921658
-0.03004522 0.37344819 0.09799431
-0.02305639 0.37489973 0.10028066
-0.02662569 0.37944448 0.09405737
-0.03004916 0.37859699 0.09284263
-0.02308621 0.38020962 0.09514122
-0.02576095 0.39659295 0.07036608
-0.02909145 0.39553527 0.06934221
-0.02941839 0.39194151 0.07553898
-0.02607769 0.39297816 0.07665039
-0.02233781 0.39754609 0.07128341
-0.02262011 0.39392955 0.0776535
-0.02543292 0.39970997 0.06395802
-0.02874416 0.39867449 0.06304776
-0.02204362 0.40067482 0.06477602
-0.02453667 0.40615656 0.04431028
-0.02773039 0.40507845 0.04378493
-0.0280055 0.40336646 0.05022741
-0.0247802 0.40444131 0.0508964
-0.02125561 0.40713264 0.04476744
-0.02146152 0.40540839 0.05148474
-0.02440096 0.40751906 0.0377017
-0.02756565 0.40644597 0.03733417
-0.02114521 0.40849517 0.03801363
-0.02438811 0.40854522 0.03106684
-0.02754322 0.40748023 0.03087543
-0.02113427 0.40950802 0.03122335
-0.02478955 0.40952042 0.01774554
-0.02796898 0.4084554 0.01794208
-0.02766594 0.40813807 0.02441248
-0.02451361 0.40922052 0.02441612
-0.02150193 0.41049279 0.01755739
-0.02125374 0.41017733 0.0244067
-0.02521974 0.4094272 0.01104772
-0.02843363 0.4083562 0.01147224
-0.02188793 0.4104128 0.01066978
-0.02581178 0.40888537 0.00432691
-0.02909536 0.40782403 0.00497677
-0.02240047 0.40986316 0.00375238
-0.02655053 0.4077942 -0.0023973
-0.02992277 0.40674601 -0.0015121
-0.02303861 0.40874201 -0.00317556
-0.02741436 0.40607686 -0.00910961
-0.03089053 0.40505186 -0.00798452
-0.0237888 0.4070104 -0.01009278
-0.02839129 0.40369742 -0.01578353
-0.03199568 0.40271724 -0.01442629
-0.02463531 0.40460204 -0.01697137
-0.02943034 0.4005946 -0.02236092
-0.03317146 0.3996483 -0.02077742
-0.02553291 0.40144085 -0.02373907
-0.03049134 0.39675249 -0.02876987
-0.03437021 0.39584635 -0.02696584
-0.02643455 0.39750039 -0.03030475
-0.03148281 0.3920717 -0.03485523
-0.03553037 0.39128375 -0.03288978
-0.0272698 0.39273006 -0.03652645
-0.03236238 0.38664211 -0.04051888
-0.03658437 0.38598624 -0.03844163
-0.02801588 0.38721249 -0.04231411
-0.03425366 0.35937712 -0.05761836
-0.03887007 0.35904182 -0.05528626
-0.03864323 0.36645192 -0.05199387
-0.03408048 0.36684731 -0.05429478
-0.02956194 0.3596627 -0.05965349
-0.02943237 0.36718286 -0.05628157
-0.03420906 0.35164857 -0.06026518
-0.03882146 0.35135858 -0.05788752
-0.02950184 0.35185947 -0.06228762
-0.03256544 0.32049209 -0.06487329
-0.03704423 0.32039982 -0.0625787
-0.02801907 0.32051131 -0.06682572
-0.03111046 0.30638585 -0.06382745
-0.03539337 0.3063982 -0.06162385
-0.03627465 0.31318824 -0.06234898
