-58.830330 49.915714 40.111320
-50.384407 64.522873 47.939297
-38.336620 69.258125 58.023617
-23.443548 67.963860 64.903183
-13.050183 57.023685 64.899261
-25.210148 56.103069 58.644661
-39.984367 55.508095 56.446350
-51.328030 51.865303 50.006786
60.355431 50.043259 39.182339
52.442028 53.679348 49.885498
39.187519 56.524380 56.169075
23.646433 55.720684 59.043568
13.417896 57.255131 65.450043
23.037842 68.768532 65.071846
39.795284 69.941460 56.560261
52.233589 64.803162 46.344734
-47.522633 39.111851 47.978306
-39.710594 43.632614 53.607529
-32.677261 45.017193 55.626461
-26.206905 43.063553 54.822769
-16.611118 36.000320 52.993435
-26.866674 35.003395 54.983852
-33.755814 33.962231 55.133648
-40.382057 34.639904 52.922108
46.017235 38.724037 47.386208
39.610092 35.674488 53.370453
32.017982 35.572350 54.691021
26.963556 35.960430 54.019058
16.854687 36.794418 53.165234
25.734810 45.083412 55.226078
31.814713 47.493176 55.897030
39.150600 44.447735 53.280701
-33.007080 40.232471 53.785355
32.243679 41.470150 52.983067
8.393171 39.142887 60.867401
11.553130 12.072611 76.587059
16.099855 -1.027293 67.670479
12.484231 -9.468843 70.575508
9.908546 -0.026790 83.604401
-0.040040 -7.989861 83.014862
-9.331203 -1.201120 80.657936
-13.746360 -10.165462 71.089943
-16.895784 -1.744980 69.815094
-11.325308 12.338167 77.755798
-7.590029 38.735771 61.059414
0.964922 9.921683 96.269051
-25.961649 -38.618847 64.460144
-18.561148 -30.431921 74.295212
-9.229633 -25.241037 80.317711
-2.245974 -26.848589 81.903076
5.075671 -25.011719 81.973419
14.880127 -29.620497 75.498680
24.052744 -36.932281 63.945431
11.878765 -41.624752 75.094154
-2.059360 -43.042816 79.380981
-15.593285 -42.095493 74.000404
-13.388964 -32.726414 73.349274
-2.403472 -32.008041 76.440346
8.713695 -33.442650 73.794968
-12.940683 -35.279373 73.485161
-2.346403 -34.745323 76.238846
9.079878 -34.433716 74.607491
-66.642654 -20.343266 -26.323246
-60.614895 -46.487942 -12.165463
-52.249660 -61.934723 10.455172
-38.381992 -73.203880 34.751015
-19.461998 -81.157097 55.433514
-1.935393 -81.810013 62.900635
16.681898 -80.554451 56.356174
37.349171 -73.654053 31.533129
51.814674 -61.688293 8.708403
62.334629 -41.593784 -13.941273
69.858871 -19.306372 -17.794786
