-0.03358 0.121988 0.073566
-0.029948 0.116073 0.078289
-0.031578 0.112241 0.081728
-0.028518 0.119789 0.074694
-0.024853 0.112351 0.079059
-0.026427 0.108031 0.082379
-0.023471 0.116575 0.075542
-0.021221 0.102961 0.08244
-0.019791 0.107643 0.07921
-0.018483 0.112291 0.075809
-0.015966 0.097781 0.082341
-0.014754 0.102708 0.079089
-0.01362 0.107656 0.075693
-0.013166 0.095116 0.082296
-0.012056 0.100151 0.079019
-0.011024 0.105239 0.075606
-0.04934 0.116872 0.08134
-0.051669 0.11406 0.084299
-0.044145 0.11459 0.082359
-0.046425 0.111508 0.085468
-0.038793 0.111941 0.083763
-0.040982 0.108427 0.086887
-0.033454 0.108316 0.084948
-0.035578 0.104353 0.087921
-0.028227 0.10368 0.085454
-0.030259 0.099351 0.088292
-0.024704 0.093702 0.088312
-0.022842 0.098303 0.085472
-0.019091 0.088078 0.088317
-0.01738 0.092897 0.085409
-0.016151 0.085201 0.08835
-0.014489 0.09012 0.085394
-0.018209 0.080377 0.091168
-0.021164 0.083355 0.091077
-0.026856 0.089185 0.090987
-0.032531 0.095081 0.090934
-0.037932 0.100398 0.090667
-0.043378 0.104876 0.089805
-0.04886 0.108399 0.088443
-0.054118 0.111277 0.087174
-0.089106 0.085242 0.106399
-0.094169 0.08318 0.106479
-0.086144 0.079436 0.107706
-0.091511 0.077145 0.107921
-0.082933 0.073215 0.109059
-0.088652 0.07075 0.109493
-0.079472 0.066556 0.110465
-0.085583 0.06396 0.111132
-0.075813 0.059498 0.111943
-0.08233 0.056791 0.112835
-0.072029 0.052048 0.113437
-0.07895 0.04924 0.114523
-0.06848 0.044847 0.11466
-0.075784 0.041946 0.115857
-0.06673 0.041209 0.115146
-0.074227 0.03826 0.116366
-0.084308 0.087518 0.105985
-0.081014 0.081948 0.107203
-0.077446 0.075899 0.108389
-0.073611 0.069357 0.109548
-0.069581 0.062401 0.110737
-0.065434 0.055049 0.111955
-0.061533 0.047949 0.113011
-0.059597 0.044355 0.113452
-0.106937 0.119213 -0.043899
-0.107902 0.12168 -0.041649
-0.109829 0.126535 -0.037073
-0.111874 0.131579 -0.03211
-0.113857 0.136385 -0.027183
-0.115749 0.140937 -0.022294
-0.117541 0.14526 -0.017409
-0.119228 0.149414 -0.012463
-0.042443 0.129027 0.0697
-0.041472 0.132573 0.067046
-0.037281 0.126973 0.069543
-0.036211 0.130446 0.066506
-0.032239 0.125296 0.070061
-0.03107 0.128731 0.066621
-0.027224 0.123418 0.071001
-0.026031 0.127041 0.067275
-0.022214 0.120686 0.07188
-0.021031 0.124739 0.06812
-0.017232 0.11688 0.07229
-0.016013 0.121443 0.068683
-0.012457 0.112621 0.072234
-0.011239 0.117629 0.068768
-0.009936 0.110373 0.072143
-0.00876 0.115579 0.068709
-0.096878 0.161035 -0.011765
-0.094344 0.157812 -0.017197
-0.091648 0.154338 -0.022655
-0.088798 0.150629 -0.028196
-0.085775 0.146659 -0.033836
-0.082544 0.142384 -0.039581
-0.079369 0.138168 -0.044938
-0.077742 0.13601 -0.047564
-0.007504 0.120888 0.065305
-0.009998 0.12271 0.065275
-0.014843 0.126023 0.064978
-0.019923 0.128796 0.064303
-0.02497 0.130748 0.063601
-0.030107 0.132361 0.063316
-0.035385 0.134149 0.063623
-0.040751 0.136299 0.064498
-0.124449 0.203964 0.171131
-0.126236 0.213326 0.179621
-0.095974 0.207057 0.184285
-0.096342 0.207893 0.184719
-0.09674 0.20848 0.184544
-0.095975 0.20673 0.183619
-0.096139 0.206342 0.182816
-0.097334 0.209122 0.184328
-0.098166 0.209715 0.183965
-0.096573 0.205975 0.181856
-0.099319 0.210243 0.183459
-0.097368 0.205651 0.180752
-0.100856 0.210734 0.182863
-0.098596 0.205389 0.179549
-0.102814 0.211244 0.182233
-0.100294 0.205202 0.178294
-0.121993 0.213776 0.179488
-0.119713 0.20473 0.171398
-0.11532 0.205154 0.172158
-0.11798 0.213854 0.17962
-0.111429 0.205274 0.173235
-0.11431 0.213604 0.179953
-0.108042 0.205203 0.174466
-0.110987 0.213102 0.18043
-0.105064 0.205114 0.175735
-0.107954 0.212472 0.180993
-0.102467 0.205107 0.177016
-0.105203 0.211827 0.181604
-0.124654 0.217554 0.199653
-0.118017 0.183653 0.174587
-0.095452 0.204864 0.187675
-0.094608 0.202529 0.186429
-0.096472 0.207291 0.188874
-0.097445 0.209696 0.190034
-0.094103 0.200346 0.185156
-0.0983 0.211961 0.191171
-0.099174 0.214018 0.192235
-0.09398 0.198359 0.18388
-0.100283 0.215841 0.19316
-0.094224 0.196595 0.182593
-0.101811 0.217393 0.193943
-0.09483 0.19503 0.18128
-0.103824 0.218602 0.194628
-0.095833 0.193571 0.179923
-0.121187 0.218148 0.198917
-0.117917 0.218647 0.198122
-0.10915 0.186576 0.174737
-0.113448 0.185138 0.174499
-0.11484 0.219149 0.197326
-0.105299 0.187948 0.175292
-0.111888 0.219569 0.196584
-0.102032 0.1893 0.176152
-0.109009 0.219706 0.195907
-0.099382 0.190697 0.177267
-0.106269 0.219393 0.195267
-0.097324 0.192132 0.178555
-0.120249 0.210115 0.214538
-0.114299 0.179897 0.195885
-0.095285 0.199573 0.193725
-0.096173 0.202086 0.194565
-0.097334 0.20452 0.195633
-0.098497 0.206716 0.196894
-0.094835 0.197187 0.193172
-0.099517 0.208562 0.19833
-0.100451 0.209991 0.199885
-0.094852 0.195089 0.192926
-0.101465 0.21102 0.201463
-0.095254 0.193313 0.192945
-0.102701 0.21171 0.202989
-0.095965 0.191774 0.193136
-0.104197 0.212105 0.204455
-0.09697 0.190337 0.193391
-0.114422 0.211223 0.212082
-0.117204 0.210744 0.213449
-0.110783 0.181264 0.195384
-0.107503 0.182766 0.194937
-0.111942 0.211606 0.210545
-0.10458 0.184331 0.194541
-0.109735 0.21192 0.208959
-0.102077 0.185896 0.194202
-0.107743 0.21215 0.207399
-0.099995 0.187429 0.19391
-0.105899 0.212236 0.205906
-0.098303 0.188905 0.193649
-0.116761 0.198843 0.218914
-0.114931 0.188876 0.212419
-0.098166 0.200556 0.200769
-0.097767 0.199345 0.20071
-0.098852 0.201712 0.201181
-0.09967 0.202653 0.201903
-0.097819 0.198268 0.201024
-0.100555 0.203275 0.202878
-0.101475 0.203562 0.204064
-0.098334 0.19743 0.201706
-0.102425 0.203577 0.205427
-0.099201 0.196801 0.202698
-0.103416 0.203414 0.206931
-0.100292 0.196249 0.203891
-0.104466 0.203112 0.208541
-0.101536 0.195696 0.20519
-0.114217 0.199568 0.217936
-0.11195 0.20026 0.216649
-0.109975 0.191313 0.211052
-0.112336 0.190061 0.211802
-0.110003 0.200931 0.215142
-0.107889 0.192522 0.21011
-0.108337 0.20157 0.213537
-0.106028 0.193555 0.209018
-0.106886 0.202171 0.211886
-0.10438 0.194405 0.207796
-0.105608 0.202693 0.210209
-0.102898 0.195099 0.20651
-0.118185 0.204488 0.218065
-0.114108 0.183395 0.205434
-0.09641 0.199188 0.197528
-0.097091 0.201125 0.197943
-0.098069 0.202971 0.19868
-0.099132 0.204559 0.199674
-0.096184 0.197376 0.197483
-0.100164 0.205782 0.20088
-0.101161 0.206603 0.20226
-0.096418 0.195845 0.197814
-0.10217 0.207067 0.203757
-0.097016 0.194602 0.198456
-0.103248 0.207267 0.205323
-0.097888 0.193535 0.199284
-0.104423 0.207277 0.206949
-0.098999 0.192517 0.200179
-0.112788 0.205773 0.21557
-0.115334 0.20519 0.216994
-0.111108 0.184781 0.204843
-0.108353 0.18628 0.204207
-0.110584 0.206248 0.213915
-0.105893 0.18775 0.203507
-0.108704 0.206632 0.212168
-0.103746 0.189111 0.202746
-0.107106 0.206937 0.210392
-0.101906 0.190351 0.201928
-0.105702 0.207155 0.20864
-0.100338 0.191473 0.201069
-0.122549 0.214549 0.208114
-0.115696 0.179816 0.184925
-0.095623 0.203391 0.190954
-0.094674 0.2007 0.18979
-0.096792 0.206075 0.192215
-0.097899 0.208616 0.193578
-0.094128 0.198149 0.188753
-0.098808 0.2109 0.19505
-0.09963 0.212861 0.196573
-0.094026 0.195852 0.187878
-0.100617 0.214481 0.19804
-0.094316 0.193853 0.187158
-0.101992 0.215749 0.199371
-0.094932 0.192106 0.186545
-0.103822 0.21661 0.200545
-0.095883 0.190486 0.185971
-0.119343 0.21517 0.207161
-0.116342 0.215678 0.206042
-0.107867 0.182721 0.184351
-0.111674 0.18124 0.184557
-0.113563 0.216167 0.204854
-0.104442 0.184219 0.184335
-0.110947 0.21664 0.203697
-0.101516 0.185738 0.184528
-0.108427 0.216983 0.202622
-0.09912 0.187303 0.184906
-0.106016 0.217014 0.2016
-0.097252 0.188894 0.18541
-0.12613 0.217816 0.189856
-0.121224 0.19243 0.168669
-0.095091 0.20469 0.184263
-0.095615 0.206213 0.185308
-0.096342 0.207911 0.186175
-0.097133 0.209618 0.186822
-0.094828 0.203293 0.183082
-0.09798 0.211252 0.187323
-0.098976 0.212746 0.187678
-0.09488 0.202011 0.181783
-0.100243 0.214074 0.187874
-0.095296 0.200867 0.180363
-0.10187 0.215245 0.187956
-0.096133 0.199863 0.178836
-0.103903 0.216285 0.187998
-0.097435 0.198958 0.177231
-0.118709 0.218542 0.188958
-0.12232 0.218297 0.189376
-0.116286 0.193707 0.168956
-0.111751 0.194813 0.169794
-0.115326 0.218598 0.188603
-0.107772 0.195729 0.171006
-0.112143 0.218414 0.188336
-0.104397 0.196515 0.172436
-0.109136 0.217943 0.18816
-0.101569 0.197287 0.173983
-0.106351 0.217204 0.188055
-0.099245 0.198102 0.175596
-0.097448 0.272683 0.209404
-0.097147 0.273493 0.208863
-0.117921 0.266271 0.215397
-0.117584 0.265941 0.215255
-0.117168 0.265671 0.215139
-0.118236 0.266704 0.215592
-0.118486 0.267237 0.2159
-0.118553 0.267808 0.216347
-0.117797 0.26901 0.217497
-0.118325 0.268381 0.2169
-0.116998 0.269813 0.218076
-0.116579 0.265414 0.21508
-0.115722 0.265154 0.215105
-0.114522 0.264922 0.215197
-0.112952 0.264775 0.215284
-0.111063 0.264757 0.215296
-0.108945 0.264961 0.215182
-0.106717 0.265434 0.214886
-0.104548 0.266156 0.214364
-0.102588 0.267095 0.213621
-0.100914 0.268206 0.212714
-0.099593 0.269423 0.211759
-0.09863 0.270642 0.210861
-0.097936 0.271743 0.210075
-0.098771 0.276107 0.211693
-0.099633 0.27656 0.212974
-0.100718 0.276889 0.214255
-0.102042 0.277056 0.215485
-0.103576 0.277067 0.216622
-0.105305 0.276905 0.217623
-0.107201 0.276509 0.218436
-0.109197 0.275814 0.219003
-0.111181 0.274798 0.219282
-0.113019 0.273518 0.219255
-0.11462 0.272145 0.218998
-0.115943 0.270865 0.21859
-0.098073 0.275616 0.210463
-0.097045 0.274165 0.20856
-0.097175 0.274689 0.208705
-0.097529 0.275149 0.20939
-0.098306 0.274028 0.207869
-0.098644 0.273697 0.207721
-0.098247 0.27324 0.208066
-0.097999 0.273884 0.20808
-0.11712 0.268009 0.213536
-0.117448 0.267679 0.214002
-0.117248 0.267287 0.213952
-0.116941 0.26734 0.213638
-0.117371 0.268708 0.213671
-0.117701 0.268234 0.214173
-0.117604 0.26939 0.214026
-0.117918 0.268816 0.214482
-0.117787 0.269934 0.214592
-0.118064 0.269319 0.214906
-0.117939 0.270175 0.215312
-0.118125 0.269627 0.215309
-0.117377 0.270691 0.21431
-0.117545 0.271024 0.215308
-0.117167 0.270001 0.213558
-0.116907 0.269141 0.213131
-0.116639 0.268255 0.213023
-0.116436 0.267386 0.213203
-0.115981 0.268474 0.212437
-0.115738 0.267395 0.212701
-0.116273 0.26958 0.212517
-0.115079 0.268686 0.211744
-0.114773 0.267354 0.212133
-0.115408 0.27006 0.211765
-0.11386 0.268887 0.210925
-0.11346 0.267278 0.211501
-0.114254 0.270574 0.210846
-0.112311 0.269082 0.210055
-0.111802 0.267235 0.210866
-0.112802 0.271082 0.209834
-0.110481 0.26932 0.209255
-0.109884 0.267335 0.210296
-0.111069 0.27156 0.208881
-0.10848 0.269653 0.208608
-0.107826 0.267648 0.209803
-0.10913 0.272008 0.208124
-0.106463 0.270082 0.20813
-0.105769 0.268157 0.209361
-0.107136 0.272419 0.20761
-0.104569 0.270581 0.207774
-0.10384 0.268819 0.208938
-0.105246 0.272789 0.207281
-0.102907 0.271141 0.207511
-0.102145 0.269608 0.208547
-0.103579 0.273132 0.207085
-0.101495 0.271777 0.207376
-0.100733 0.270517 0.208242
-0.102153 0.27348 0.207041
-0.100296 0.272477 0.207398
-0.099614 0.271506 0.20808
-0.100906 0.273837 0.207154
-0.09933 0.273152 0.207534
-0.098789 0.272447 0.208044
-0.099844 0.274153 0.207364
-0.101149 0.276699 0.208276
-0.100077 0.276274 0.208183
-0.099773 0.276855 0.209084
-0.100771 0.277457 0.20956
-0.101218 0.275374 0.207436
-0.100123 0.275287 0.20758
-0.102475 0.27702 0.208463
-0.102078 0.277917 0.210129
-0.102511 0.275389 0.207379
-0.104028 0.277199 0.208771
-0.10364 0.27821 0.210759
-0.103999 0.275329 0.207461
-0.105783 0.277225 0.209172
-0.105386 0.278335 0.2114
-0.105716 0.275185 0.207685
-0.107686 0.277061 0.209656
-0.107262 0.278239 0.212037
-0.107625 0.274923 0.208048
-0.109637 0.27665 0.210261
-0.109205 0.277844 0.212686
-0.1096 0.274509 0.208604
-0.111506 0.275964 0.211012
-0.111124 0.27712 0.213355
-0.111483 0.273925 0.209402
-0.11319 0.275014 0.211867
-0.112931 0.276078 0.214018
-0.113147 0.273183 0.210381
-0.114654 0.273866 0.212726
-0.11455 0.274783 0.214602
-0.114555 0.272327 0.211404
-0.115859 0.272674 0.213449
-0.115894 0.273398 0.215017
-0.115694 0.27146 0.21231
-0.11676 0.271597 0.213961
-0.11689 0.272108 0.215233
-0.116553 0.270678 0.213014
-0.099277 0.275833 0.20814
-0.099064 0.276201 0.208702
-0.09926 0.275162 0.207758
-0.099018 0.274376 0.207613
-0.098457 0.274479 0.207859
-0.098675 0.275057 0.207957
-0.098044 0.274457 0.208086
-0.098271 0.275016 0.208186
-0.098829 0.275508 0.208136
-0.098596 0.275586 0.208408
-0.097678 0.272793 0.209013
-0.097399 0.273596 0.208639
-0.117786 0.266688 0.214949
-0.117446 0.266356 0.21477
-0.117021 0.266107 0.214561
-0.118092 0.267143 0.215162
-0.118337 0.267689 0.215472
-0.118433 0.268267 0.215887
-0.118313 0.268864 0.216369
-0.117952 0.269549 0.216863
-0.117348 0.270434 0.217332
-0.116438 0.26586 0.21434
-0.11562 0.265568 0.214153
-0.114478 0.265243 0.214018
-0.112971 0.264962 0.213908
-0.111143 0.264837 0.213777
-0.10909 0.264995 0.213582
-0.106925 0.26547 0.213268
-0.104782 0.266209 0.212796
-0.102806 0.267164 0.212167
-0.10111 0.268282 0.211436
-0.099783 0.269504 0.210694
-0.098834 0.270739 0.210026
-0.098157 0.271852 0.209471
-0.099055 0.27665 0.211003
-0.099914 0.277236 0.212133
-0.101054 0.277658 0.2133
-0.10246 0.277894 0.214427
-0.104076 0.277981 0.215469
-0.105873 0.277896 0.2164
-0.107825 0.277541 0.217182
-0.109866 0.276839 0.217769
-0.11188 0.27579 0.218129
-0.113721 0.274445 0.218218
-0.115273 0.272978 0.218072
-0.116474 0.271589 0.21775
-0.098409 0.275993 0.209981
-0.097343 0.274259 0.208446
-0.097527 0.274816 0.208593
-0.097901 0.275373 0.209135
-0.097928 0.272962 0.208543
-0.097681 0.273729 0.208367
-0.117648 0.267196 0.214475
-0.117329 0.266855 0.21429
-0.11692 0.266682 0.214013
-0.117929 0.267685 0.214677
-0.118153 0.26824 0.214974
-0.118273 0.268787 0.215363
-0.118248 0.269332 0.215771
-0.118029 0.270006 0.216105
-0.117587 0.270917 0.216382
-0.116365 0.26655 0.213664
-0.115603 0.26637 0.213289
-0.114549 0.266121 0.212912
-0.113136 0.265852 0.212546
-0.111383 0.265688 0.212197
-0.109391 0.265776 0.211852
-0.107281 0.266168 0.211476
-0.105176 0.266813 0.211034
-0.103207 0.267654 0.210514
-0.101494 0.268657 0.209959
-0.100125 0.269787 0.209446
-0.099115 0.270964 0.209041
-0.098404 0.272046 0.208755
-0.099393 0.27696 0.210084
-0.100305 0.277594 0.210943
-0.101533 0.278055 0.211876
-0.103034 0.278337 0.212804
-0.104728 0.278473 0.213675
-0.10657 0.278411 0.214469
-0.108526 0.278049 0.21518
-0.110529 0.277336 0.215792
-0.112483 0.276288 0.216282
-0.114263 0.274955 0.216591
-0.115749 0.273493 0.216688
-0.116855 0.272098 0.216594
-0.098745 0.276242 0.209356
-0.097681 0.274371 0.208285
-0.097898 0.274946 0.208414
-0.098267 0.275552 0.208787
-0.097194 0.272613 0.209688
-0.096891 0.273435 0.209017
-0.118113 0.265895 0.215841
-0.117789 0.265542 0.215766
-0.117367 0.2653 0.21572
-0.118408 0.266339 0.215976
-0.118646 0.266867 0.216236
-0.118696 0.267416 0.216688
-0.118402 0.26793 0.217313
-0.117755 0.268504 0.218022
-0.116825 0.269274 0.218715
-0.116762 0.265131 0.21577
-0.115859 0.265021 0.215923
-0.114603 0.264943 0.216153
-0.11299 0.264905 0.216376
-0.111052 0.264938 0.21649
-0.108866 0.265126 0.21642
-0.106565 0.265535 0.216113
-0.104367 0.266183 0.215535
-0.102424 0.267061 0.21469
-0.100752 0.26814 0.213639
-0.099405 0.26935 0.212526
-0.098405 0.270558 0.211461
-0.097687 0.271657 0.210508
-0.098452 0.275609 0.212142
-0.099355 0.275881 0.213507
-0.100441 0.276077 0.214837
-0.101732 0.276148 0.216106
-0.10322 0.27608 0.217282
-0.104889 0.275856 0.218314
-0.106719 0.275435 0.219138
-0.108656 0.274771 0.219707
-0.110612 0.273832 0.219983
-0.112475 0.272673 0.219969
-0.114166 0.271435 0.219724
-0.115628 0.270268 0.219298
-0.097715 0.275318 0.21078
-0.096782 0.274116 0.208623
-0.096869 0.274611 0.208765
-0.097172 0.274997 0.209553
-0.182565 0.125539 0.104264
-0.180269 0.123994 0.106215
-0.179376 0.128825 0.109989
-0.181753 0.130298 0.10806
-0.184617 0.127198 0.102224
-0.18388 0.131856 0.106001
-0.183549 0.120658 0.100732
-0.181275 0.118997 0.10264
-0.185653 0.122469 0.098769
-0.184943 0.115737 0.097693
-0.182577 0.113906 0.099507
-0.187203 0.117737 0.095837
-0.186869 0.110818 0.095273
-0.184338 0.108786 0.096986
-0.189318 0.113014 0.093505
-0.189332 0.105857 0.093524
-0.186604 0.103634 0.095152
-0.191978 0.108239 0.091816
-0.192223 0.100807 0.092431
-0.189289 0.098414 0.094031
-0.195065 0.103372 0.090748
-0.184716 0.145949 0.018739
-0.181035 0.146463 0.016574
-0.18275 0.142683 0.011823
-0.18668 0.142224 0.014051
-0.188246 0.145452 0.021095
-0.190442 0.141761 0.016499
-0.182904 0.149514 0.023288
-0.179445 0.150059 0.0212
-0.186227 0.149018 0.025546
-0.181262 0.153071 0.027664
-0.178 0.15362 0.02565
-0.184397 0.152591 0.029841
-0.179759 0.15674 0.031836
-0.176681 0.157273 0.02989
-0.182729 0.156276 0.033952
-0.1784 0.160575 0.035837
-0.175486 0.161098 0.033922
-0.181221 0.160106 0.03792
-0.177184 0.164576 0.039688
-0.174419 0.165101 0.037786
-0.179857 0.164074 0.041757
-0.116298 0.110427 0.116624
-0.115935 0.105747 0.112785
-0.115357 0.100772 0.109636
-0.119883 0.104995 0.113535
-0.120035 0.109779 0.117108
-0.123681 0.109338 0.117534
-0.123671 0.104432 0.114319
-0.119504 0.099929 0.110746
-0.123477 0.09924 0.111876
-0.148798 0.160785 0.014595
-0.149036 0.164685 0.018798
-0.148526 0.156689 0.010345
-0.156431 0.158622 0.016531
-0.156316 0.162468 0.020773
-0.152698 0.163571 0.019702
-0.152629 0.159685 0.015488
-0.156553 0.154648 0.012201
-0.152544 0.155631 0.011209
-0.160185 0.157606 0.017718
-0.159879 0.161403 0.021994
-0.16053 0.153727 0.013326
-0.163886 0.156649 0.019042
-0.163384 0.160397 0.023348
-0.164458 0.152862 0.014587
-0.167536 0.155769 0.020493
-0.166829 0.159471 0.024823
-0.168338 0.152062 0.015988
-0.171117 0.154968 0.022077
-0.170202 0.158636 0.026407
-0.172145 0.151328 0.01755
-0.174612 0.15425 0.023794
-0.173491 0.157901 0.02809
-0.175854 0.150661 0.019285
-0.190254 0.151729 0.034731
-0.188289 0.155403 0.038726
-0.185581 0.155843 0.036243
-0.187399 0.152155 0.03219
-0.192416 0.148124 0.030622
-0.189398 0.148557 0.027986
-0.192959 0.151298 0.037481
-0.190833 0.154925 0.041426
-0.195273 0.147707 0.033465
-0.195485 0.150817 0.04046
-0.193185 0.154374 0.044356
-0.197957 0.147279 0.036528
-0.19779 0.150251 0.04367
-0.19531 0.153719 0.047509
-0.200433 0.146786 0.039824
-0.199836 0.149551 0.04711
-0.197181 0.152923 0.050871
-0.202661 0.146174 0.043356
-0.201605 0.148665 0.050768
-0.198785 0.151929 0.054428
-0.204613 0.145394 0.047115
-0.203049 0.147547 0.054609
-0.200089 0.150708 0.058146
-0.206234 0.144386 0.051069
-0.204798 0.144648 0.062553
-0.201658 0.147652 0.065788
-0.201063 0.149277 0.061965
-0.20413 0.146204 0.058571
-0.208271 0.141678 0.059318
-0.207472 0.143147 0.055166
-0.205038 0.142902 0.066459
-0.201848 0.145865 0.06952
-0.208596 0.139989 0.063429
-0.204849 0.140986 0.070209
-0.201635 0.143961 0.073084
-0.208459 0.138087 0.067413
-0.20425 0.138926 0.073749
-0.201029 0.141969 0.076422
-0.207879 0.135973 0.071207
-0.203242 0.136715 0.07705
-0.200049 0.139881 0.079529
-0.206854 0.133652 0.07476
-0.20185 0.134356 0.080083
-0.198761 0.137684 0.082441
-0.205395 0.13114 0.078004
-0.19821 0.129402 0.085364
-0.195505 0.133126 0.08778
-0.197235 0.135414 0.085193
-0.200144 0.131895 0.082842
-0.201423 0.125759 0.083405
-0.203549 0.128482 0.080875
-0.19611 0.126928 0.087679
-0.193615 0.130867 0.090187
-0.199111 0.123045 0.085664
-0.193907 0.124505 0.089842
-0.191646 0.128657 0.092453
-0.19669 0.120388 0.087755
-0.191667 0.122156 0.091914
-0.189653 0.126505 0.094632
-0.194232 0.117822 0.089752
-0.189432 0.11989 0.093915
-0.187669 0.12443 0.096743
-0.19177 0.115359 0.091669
-0.180031 0.112236 0.101272
-0.178773 0.117466 0.104464
-0.181654 0.106936 0.098651
-0.177289 0.11074 0.102965
-0.176066 0.116072 0.106187
-0.17879 0.1053 0.100264
-0.174342 0.109439 0.10457
-0.173164 0.114821 0.107793
-0.175732 0.103911 0.101825
-0.171192 0.108323 0.10607
-0.170069 0.113697 0.10927
-0.17247 0.102768 0.103325
-0.167853 0.10735 0.10744
-0.166806 0.11268 0.110614
-0.16901 0.101821 0.104734
-0.164329 0.106479 0.108652
-0.163386 0.111759 0.111826
-0.165365 0.101007 0.105974
-0.16067 0.105699 0.109695
-0.159833 0.110927 0.112922
-0.1616 0.100276 0.107011
-0.156944 0.105002 0.110613
-0.15619 0.110183 0.113935
-0.157788 0.099615 0.107878
-0.153205 0.104389 0.111476
-0.152517 0.109537 0.114891
-0.153958 0.099028 0.10865
-0.149477 0.103854 0.112381
-0.148854 0.109003 0.115801
-0.150132 0.098521 0.109495
-0.145774 0.103425 0.113337
-0.145202 0.108619 0.116639
-0.146334 0.098111 0.110474
-0.142097 0.10316 0.114259
-0.141563 0.108416 0.117354
-0.142576 0.097827 0.11153
-0.138425 0.103102 0.115
-0.137933 0.108404 0.117864
-0.138836 0.097719 0.112491
-0.134735 0.103261 0.115405
-0.134323 0.108544 0.118119
-0.135063 0.097829 0.113131
-0.131037 0.103574 0.115402
-0.130751 0.108766 0.118131
-0.131229 0.098151 0.113258
-0.127357 0.103975 0.114997
-0.127222 0.109025 0.117906
-0.127361 0.098641 0.112799
-0.116873 0.119163 0.124731
-0.116568 0.114868 0.120677
-0.120092 0.114316 0.121034
-0.120232 0.118678 0.12503
-0.123629 0.118435 0.125112
-0.123599 0.113988 0.121241
-0.127026 0.118371 0.124985
-0.127061 0.113814 0.121309
-0.130419 0.118426 0.124692
-0.130502 0.113712 0.121266
-0.133812 0.11855 0.124288
-0.133969 0.11365 0.121094
-0.137205 0.118686 0.123881
-0.13747 0.113621 0.120831
-0.140622 0.118841 0.123453
-0.141014 0.113664 0.12044
-0.144093 0.119037 0.122979
-0.144596 0.113827 0.119909
-0.149268 0.168485 0.022929
-0.149501 0.172249 0.026965
-0.15624 0.166274 0.024903
-0.15619 0.170086 0.028895
-0.152879 0.171172 0.027849
-0.152782 0.167382 0.02383
-0.159633 0.165196 0.026124
-0.159423 0.16903 0.030087
-0.16296 0.16418 0.027475
-0.162578 0.168044 0.031409
-0.166215 0.163249 0.028938
-0.165651 0.167148 0.032849
-0.169389 0.162422 0.030499
-0.168647 0.166362 0.034387
-0.17248 0.161709 0.032152
-0.171572 0.16569 0.036026
-0.186486 0.159157 0.042644
-0.184833 0.162976 0.046455
-0.182414 0.163551 0.044013
-0.183927 0.159645 0.040185
-0.188873 0.158603 0.045315
-0.187092 0.162316 0.049092
-0.191066 0.157954 0.048206
-0.18917 0.161551 0.051932
-0.193041 0.157187 0.051304
-0.191051 0.160663 0.054978
-0.19478 0.156272 0.054592
-0.192711 0.159633 0.058212
-0.196265 0.155179 0.058047
-0.194114 0.158456 0.061586
-0.197466 0.153887 0.061638
-0.195237 0.157125 0.065056
-0.198908 0.150742 0.069003
-0.196562 0.153972 0.072186
-0.196069 0.155626 0.068608
-0.198365 0.152403 0.065316
-0.199058 0.148949 0.0726
-0.196671 0.152225 0.075677
-0.198817 0.147088 0.076015
-0.196419 0.150452 0.078986
-0.198215 0.14519 0.079199
-0.195887 0.148673 0.0821
-0.197326 0.143245 0.0822
-0.195162 0.146861 0.085096
-0.196213 0.141212 0.085106
-0.194247 0.144959 0.088055
-0.193349 0.136985 0.090604
-0.191831 0.14099 0.093768
-0.193119 0.142977 0.090963
-0.19488 0.139104 0.087921
-0.191703 0.134911 0.093133
-0.190459 0.139057 0.096445
-0.190004 0.132884 0.09554
-0.189014 0.137161 0.099016
-0.188273 0.130898 0.097865
-0.187468 0.1353 0.101484
-0.186495 0.128989 0.100097
-0.18577 0.133522 0.103814
-0.177729 0.122549 0.108044
-0.176767 0.127438 0.111775
-0.174994 0.12121 0.109747
-0.17398 0.126141 0.113426
-0.172089 0.119979 0.111319
-0.171055 0.124939 0.114948
-0.169028 0.118855 0.112758
-0.168019 0.123837 0.116335
-0.165831 0.117826 0.114074
-0.1649 0.12283 0.117601
-0.162514 0.11688 0.115289
-0.161674 0.121901 0.118778
-0.159059 0.11602 0.116419
-0.158299 0.121057 0.119877
-0.155477 0.115262 0.117461
-0.154778 0.120328 0.120864
-0.151838 0.114626 0.11841
-0.151193 0.119746 0.121714
-0.148207 0.11414 0.119233
-0.147621 0.119323 0.122409
-0.147902 0.147808 0.001572
-0.148223 0.15236 0.006008
-0.15245 0.151354 0.00684
-0.152358 0.146842 0.002371
-0.156834 0.146038 0.003232
-0.156683 0.150464 0.007774
-0.161301 0.145345 0.004198
-0.160896 0.149663 0.008821
-0.16574 0.144736 0.005299
-0.165074 0.148924 0.010002
-0.170132 0.144178 0.006583
-0.169205 0.148238 0.011341
-0.174452 0.143651 0.008089
-0.173262 0.147597 0.012871
-0.178668 0.143157 0.009832
-0.177212 0.147008 0.014613
-0.191611 0.144979 0.023643
-0.194021 0.141303 0.019154
-0.197409 0.140865 0.022019
-0.194805 0.144532 0.026393
-0.200587 0.140464 0.025106
-0.197817 0.14412 0.029354
-0.203539 0.140099 0.028426
-0.20064 0.143725 0.032536
-0.206261 0.139726 0.031985
-0.203254 0.143295 0.035949
-0.208758 0.139298 0.035771
-0.205635 0.142773 0.039596
-0.211012 0.13874 0.039784
-0.207753 0.1421 0.043468
-0.212984 0.137972 0.044017
-0.209559 0.141214 0.047542
-0.210988 0.140082 0.05178
-0.214615 0.136956 0.048444
-0.215826 0.135661 0.053017
-0.21198 0.138703 0.056117
-0.216541 0.134071 0.057653
-0.21247 0.137071 0.060467
-0.216709 0.132183 0.06226
-0.212449 0.13518 0.064738
-0.216287 0.129986 0.066725
-0.211917 0.133022 0.068846
-0.215264 0.127489 0.070933
-0.210876 0.130603 0.072704
-0.213673 0.124708 0.074754
-0.209349 0.127948 0.076216
-0.207386 0.125099 0.079289
-0.211603 0.121686 0.078084
-0.20915 0.118505 0.080881
-0.205088 0.122141 0.081911
-0.206438 0.115277 0.083215
-0.202572 0.119172 0.084172
-0.203605 0.112099 0.085261
-0.199944 0.116264 0.08622
-0.200746 0.109031 0.087166
-0.197284 0.11346 0.088162
-0.197897 0.106117 0.08899
-0.194623 0.110781 0.090027
-0.186202 0.096221 0.095579
-0.183728 0.101602 0.096725
-0.182936 0.09429 0.097088
-0.18067 0.09981 0.09825
-0.114542 0.095532 0.107546
-0.113431 0.09001 0.106779
-0.123084 0.093768 0.110417
-0.122494 0.088051 0.110041
-0.118051 0.088962 0.108426
-0.118902 0.094588 0.108981
-0.127201 0.093063 0.111481
-0.126899 0.087311 0.11115
-0.13129 0.092539 0.111889
-0.131274 0.086816 0.111535
-0.135311 0.092253 0.111603
-0.135572 0.086596 0.111252
-0.13925 0.092202 0.110799
-0.139777 0.086601 0.110483
-0.143143 0.092334 0.10974
-0.143913 0.086749 0.109498
-0.147045 0.092594 0.108671
-0.148011 0.086985 0.10849
-0.150966 0.092956 0.107728
-0.152074 0.087307 0.107539
-0.154887 0.093419 0.106902
-0.156096 0.087727 0.106599
-0.158792 0.09398 0.106092
-0.160089 0.088255 0.105598
-0.162683 0.094618 0.105158
-0.164073 0.088876 0.104469
-0.166551 0.095321 0.104044
-0.168053 0.089581 0.103186
-0.170341 0.096119 0.102733
-0.171998 0.090394 0.101751
-0.17398 0.097088 0.101274
-0.175835 0.091393 0.100196
-0.177426 0.098304 0.099763
-0.179488 0.092677 0.098622
-0.195417 0.095733 0.091962
-0.192287 0.0932 0.093628
-0.198458 0.098464 0.090253
-0.184548 0.138627 0.007027
-0.188734 0.138239 0.009306
-0.192744 0.137834 0.011824
-0.171118 0.139824 0.001799
-0.166454 0.140271 0.000561
-0.13118 0.081104 0.112347
-0.126456 0.081497 0.111821
-0.19656 0.137428 0.014568
-0.200164 0.137034 0.017539
-0.185559 0.088913 0.096913
-0.189003 0.090902 0.095268
-0.161747 0.140781 -0.000473
-0.121709 0.082172 0.110627
-0.116944 0.083089 0.108952
-0.170032 0.08417 0.103658
-0.165914 0.083431 0.105165
-0.161788 0.08279 0.106543
-0.178114 0.086011 0.100323
-0.174119 0.08501 0.102033
-0.181937 0.087287 0.0986
-0.1802 0.139013 0.005013
-0.201483 0.101404 0.0885
-0.157016 0.141384 -0.001364
-0.152281 0.142119 -0.002159
-0.112025 0.084206 0.107226
-0.147571 0.14306 -0.002914
-0.204524 0.10455 0.086701
-0.209469 0.136025 0.027901
-0.212062 0.135681 0.031852
-0.206632 0.136344 0.024194
-0.149176 0.08148 0.109849
-0.14482 0.081221 0.110769
-0.140374 0.081038 0.111596
-0.135829 0.080974 0.112204
-0.15764 0.082252 0.107768
-0.153447 0.081821 0.108862
-0.214423 0.135236 0.036058
-0.216541 0.134597 0.04052
-0.219898 0.124221 0.069454
-0.218288 0.121325 0.073608
-0.207579 0.107875 0.084804
-0.210615 0.111315 0.082713
-0.213516 0.114779 0.080241
-0.216121 0.118155 0.077224
-0.220729 0.130922 0.055074
-0.221114 0.129036 0.060044
-0.219781 0.132472 0.050097
-0.22085 0.126799 0.064882
-0.218356 0.133691 0.045217
-0.203528 0.13667 0.020743
-0.175713 0.139411 0.003273
-0.180009 0.249373 0.223567
-0.179109 0.248864 0.224154
-0.166539 0.261932 0.236818
-0.169447 0.261371 0.237049
-0.168924 0.26032 0.23589
-0.166159 0.260917 0.23548
-0.122808 0.214031 0.238987
-0.122574 0.213918 0.23745
-0.124209 0.214368 0.238599
-0.123893 0.214111 0.23732
-0.124829 0.214739 0.237043
-0.124916 0.215149 0.238137
-0.125179 0.21615 0.237641
-0.12541 0.215661 0.236654
-0.125363 0.217314 0.237045
-0.125841 0.216702 0.236126
-0.125807 0.218688 0.236295
-0.126419 0.217802 0.235439
-0.126808 0.220157 0.235326
-0.1273 0.218896 0.234548
-0.129959 0.220182 0.23191
-0.131561 0.219852 0.230455
-0.131096 0.218545 0.230581
-0.129819 0.218796 0.23184
-0.132933 0.21898 0.229437
-0.132354 0.217972 0.229658
-0.133879 0.218157 0.229173
-0.133424 0.217403 0.229272
-0.134203 0.217016 0.229249
-0.134552 0.21769 0.229304
-0.135067 0.21726 0.229599
-0.134684 0.216809 0.229356
-0.135493 0.216571 0.229975
-0.134815 0.216169 0.229444
-0.135107 0.214948 0.229515
-0.135939 0.215614 0.2304
-0.137971 0.213474 0.229826
-0.136455 0.213969 0.229691
-0.136689 0.214662 0.230886
-0.137851 0.214058 0.231377
-0.139635 0.213621 0.229987
-0.139293 0.214088 0.231863
-0.141186 0.214459 0.230156
-0.140724 0.214843 0.232292
-0.1424 0.215924 0.230284
-0.141879 0.216283 0.232577
-0.142579 0.218259 0.232642
-0.143142 0.217871 0.230323
-0.142769 0.220525 0.232458
-0.143401 0.220067 0.230221
-0.142551 0.222845 0.232059
-0.143301 0.222308 0.229967
-0.142184 0.225092 0.231558
-0.142034 0.227209 0.231116
-0.143076 0.226486 0.229297
-0.143088 0.224468 0.229617
-0.142342 0.229146 0.230849
-0.143502 0.228309 0.229131
-0.142945 0.230876 0.230659
-0.144219 0.229921 0.229018
-0.143601 0.232447 0.230414
-0.144986 0.231391 0.228815
-0.144211 0.233951 0.230079
-0.145686 0.232803 0.228499
-0.146322 0.234224 0.228123
-0.144771 0.235432 0.229684
-0.146924 0.235693 0.227762
-0.145302 0.236924 0.229285
-0.145821 0.238433 0.228899
-0.147503 0.237215 0.22743
-0.14804 0.238779 0.227134
-0.146318 0.239952 0.228543
-0.148485 0.240381 0.226858
-0.146748 0.241504 0.228186
-0.148822 0.242046 0.226562
-0.147084 0.243116 0.227811
-0.149396 0.248149 0.225258
-0.147372 0.248663 0.226581
-0.147152 0.250663 0.226425
-0.148639 0.250602 0.225429
-0.147022 0.252515 0.22641
-0.148365 0.252414 0.225602
-0.147064 0.254288 0.226452
-0.148352 0.254062 0.225728
-0.147354 0.256065 0.22659
-0.148585 0.255696 0.225839
-0.147993 0.257806 0.226969
-0.149163 0.257321 0.226147
-0.150573 0.260524 0.228967
-0.151569 0.259885 0.228111
-0.150168 0.258764 0.226919
-0.14908 0.25934 0.227766
-0.152397 0.261386 0.230415
-0.153299 0.260691 0.229508
-0.15536 0.261262 0.230964
-0.154558 0.262015 0.232003
-0.157758 0.261608 0.232401
-0.157128 0.262449 0.23367
-0.160457 0.261662 0.233714
-0.160158 0.262611 0.235247
-0.163314 0.261402 0.234755
-0.163429 0.262377 0.236263
-0.155093 0.25361 0.223525
-0.154494 0.253719 0.223555
-0.154679 0.253758 0.223461
-0.155128 0.253723 0.223406
-0.154322 0.253934 0.223424
-0.15454 0.25398 0.223337
-0.154747 0.253828 0.223391
-0.155828 0.253605 0.223384
-0.155648 0.253811 0.223229
-0.155016 0.253857 0.223319
-0.154806 0.254058 0.223231
-0.156549 0.253707 0.223069
-0.156227 0.254086 0.222937
-0.155372 0.253978 0.223172
-0.155116 0.254173 0.223125
-0.156292 0.254618 0.22282
-0.155365 0.254291 0.223037
-0.155666 0.254211 0.223012
-0.156308 0.255148 0.222834
-0.155338 0.254549 0.222986
-0.155771 0.254586 0.222919
-0.156338 0.25572 0.222989
-0.155307 0.254938 0.222946
-0.155792 0.255052 0.222895
-0.156422 0.256231 0.223422
-0.155286 0.255393 0.222961
-0.155807 0.255576 0.222972
-0.15668 0.256527 0.224215
-0.157297 0.256734 0.225299
-0.155284 0.255842 0.223118
-0.155838 0.256064 0.2233
-0.155877 0.256352 0.224047
-0.15665 0.256616 0.225427
-0.155287 0.256113 0.22342
-0.155778 0.256494 0.225432
-0.155148 0.256194 0.224081
-0.154839 0.255955 0.223359
-0.15434 0.25588 0.223724
-0.154475 0.256012 0.224446
-0.154274 0.255617 0.223255
-0.153715 0.255399 0.223419
-0.153635 0.25556 0.223824
-0.153838 0.255165 0.223207
-0.182845 0.249335 0.222271
-0.182088 0.24879 0.222408
-0.181494 0.249392 0.222942
-0.182013 0.250021 0.223224
-0.156406 0.260127 0.229071
-0.154605 0.259461 0.227817
-0.154026 0.260045 0.228634
-0.155948 0.260627 0.229997
-0.179852 0.24816 0.224151
-0.180264 0.247481 0.223746
-0.178929 0.246833 0.224643
-0.178562 0.247579 0.224998
-0.177224 0.246237 0.22557
-0.176919 0.247034 0.225865
-0.175141 0.245751 0.226446
-0.174917 0.246578 0.226688
-0.172727 0.245478 0.227207
-0.172592 0.24632 0.227398
-0.156863 0.258889 0.227925
-0.156933 0.258087 0.227731
-0.155442 0.257304 0.22663
-0.155271 0.258072 0.226868
-0.170147 0.245522 0.227759
-0.170111 0.246358 0.227904
-0.167602 0.24596 0.228066
-0.167688 0.246777 0.228141
-0.165077 0.246835 0.228108
-0.165268 0.247611 0.228073
-0.157792 0.256996 0.226779
-0.157338 0.257121 0.22705
-0.1627 0.248075 0.227819
-0.162974 0.248767 0.227651
-0.158282 0.257005 0.226473
-0.16066 0.24947 0.227202
-0.161014 0.250035 0.22694
-0.159005 0.250776 0.226389
-0.15941 0.251202 0.226086
-0.157664 0.25177 0.225575
-0.158092 0.252106 0.225259
-0.156571 0.252426 0.224907
-0.156989 0.252697 0.224596
-0.156218 0.252976 0.224236
-0.155719 0.252842 0.224439
-0.156973 0.253355 0.223366
-0.155043 0.253153 0.224119
-0.156012 0.253281 0.223795
-0.15432 0.253419 0.223961
-0.154852 0.25351 0.223713
-0.153717 0.253668 0.223876
-0.154165 0.253702 0.223683
-0.153305 0.253973 0.223778
-0.153703 0.253957 0.223607
-0.154051 0.25393 0.223503
-0.153101 0.2544 0.223634
-0.153438 0.254329 0.223483
-0.15376 0.254256 0.223402
-0.153181 0.254968 0.223579
-0.153423 0.254826 0.223383
-0.15367 0.254685 0.22329
-0.13239 0.247294 0.241718
-0.131978 0.246046 0.242188
-0.132782 0.248463 0.241258
-0.136345 0.245592 0.239594
-0.135946 0.244304 0.240014
-0.134144 0.245158 0.241374
-0.134541 0.246422 0.24093
-0.136732 0.246819 0.239175
-0.134924 0.24762 0.240493
-0.137887 0.244849 0.237994
-0.137476 0.243526 0.238403
-0.138273 0.246106 0.237583
-0.139285 0.244154 0.23634
-0.138861 0.242792 0.23676
-0.139669 0.245456 0.235912
-0.140626 0.243469 0.234726
-0.140202 0.242068 0.235164
-0.140995 0.244819 0.234274
-0.141951 0.242733 0.233164
-0.141537 0.241299 0.233604
-0.142302 0.244128 0.232704
-0.143302 0.241908 0.231613
-0.142888 0.24045 0.232043
-0.143662 0.243346 0.231168
-0.144745 0.240987 0.230053
-0.144304 0.2395 0.230459
-0.145138 0.242481 0.229643
-0.149956 0.237414 0.225939
-0.149398 0.235799 0.226153
-0.150394 0.239075 0.225751
-0.152093 0.235811 0.225002
-0.15153 0.234119 0.225131
-0.152505 0.237551 0.22489
-0.154454 0.233936 0.224267
-0.153888 0.232135 0.224326
-0.154835 0.235792 0.224222
-0.157066 0.231752 0.223613
-0.15648 0.229794 0.223625
-0.157429 0.233781 0.223642
-0.159995 0.229219 0.22294
-0.159339 0.22706 0.2229
-0.160363 0.231502 0.223068
-0.163318 0.22624 0.222149
-0.162466 0.22387 0.222039
-0.163762 0.228881 0.222395
-0.167072 0.222705 0.220992
-0.165779 0.220186 0.220779
-0.16785 0.225786 0.221419
-0.171019 0.218507 0.218902
-0.169062 0.216077 0.218707
-0.173268 0.221837 0.219314
-0.174392 0.213849 0.21556
-0.172013 0.211791 0.215619
-0.177115 0.215894 0.215303
-0.17697 0.209515 0.211383
-0.174475 0.207634 0.211709
-0.179661 0.211394 0.210931
-0.179019 0.205559 0.206816
-0.176518 0.203678 0.207336
-0.181626 0.20749 0.206249
-0.180744 0.20184 0.202107
-0.178261 0.19989 0.202766
-0.183266 0.203883 0.201434
-0.182184 0.19837 0.197329
-0.179721 0.196322 0.198118
-0.184634 0.200537 0.196541
-0.183397 0.195088 0.192574
-0.180946 0.192946 0.193489
-0.185813 0.19736 0.191673
-0.184444 0.191803 0.187764
-0.181981 0.189574 0.188774
-0.186847 0.194172 0.186772
-0.185853 0.182872 0.172539
-0.183291 0.180501 0.173643
-0.183245 0.183229 0.178815
-0.18577 0.185581 0.177741
-0.188295 0.185396 0.171472
-0.188185 0.188083 0.176695
-0.185418 0.180546 0.167188
-0.182823 0.178202 0.168318
-0.187892 0.18304 0.166103
-0.184406 0.178649 0.161691
-0.181789 0.176402 0.162854
-0.186906 0.181045 0.160581
-0.18286 0.177128 0.156187
-0.180255 0.175038 0.157415
-0.18537 0.179345 0.155001
-0.179268 0.173771 0.14565
-0.176711 0.172046 0.147039
-0.178434 0.173753 0.15214
-0.181003 0.175669 0.150827
-0.181794 0.175543 0.14421
-0.183507 0.177681 0.149513
-0.17816 0.170966 0.140762
-0.175536 0.16949 0.142167
-0.180751 0.172471 0.139254
-0.177774 0.167248 0.136389
-0.175045 0.165993 0.137784
-0.180457 0.168528 0.13485
-0.177793 0.162911 0.132672
-0.174983 0.1618 0.134074
-0.180551 0.164057 0.131091
-0.178057 0.158248 0.129365
-0.175207 0.157196 0.130826
-0.18082 0.159369 0.127693
-0.17845 0.153478 0.126085
-0.175614 0.152393 0.127643
-0.181175 0.154644 0.124315
-0.178955 0.148684 0.122709
-0.176164 0.147531 0.124363
-0.181597 0.149914 0.120851
-0.179554 0.143983 0.119233
-0.176855 0.142746 0.120978
-0.182072 0.145297 0.117297
-0.180229 0.139411 0.115635
-0.177633 0.13809 0.117447
-0.182612 0.140808 0.113639
-0.180969 0.134894 0.111891
-0.178486 0.133492 0.113768
-0.183219 0.136371 0.109853
-0.176147 0.168681 0.04339
-0.173517 0.169232 0.041507
-0.178685 0.168116 0.04543
-0.175378 0.172836 0.046798
-0.172855 0.173441 0.044962
-0.177817 0.172184 0.048801
-0.174958 0.17701 0.049799
-0.172509 0.177696 0.048002
-0.177334 0.176268 0.05178
-0.174854 0.181155 0.05242
-0.172454 0.181929 0.050631
-0.177181 0.180324 0.054414
-0.174974 0.185218 0.054764
-0.172601 0.186068 0.052957
-0.177268 0.184314 0.056789
-0.17526 0.189188 0.056899
-0.172915 0.190099 0.055054
-0.177517 0.188235 0.058972
-0.175678 0.193085 0.058866
-0.173368 0.194034 0.056977
-0.177885 0.192108 0.060982
-0.176186 0.196957 0.06067
-0.173919 0.197915 0.058762
-0.178342 0.195986 0.062808
-0.176756 0.200821 0.062326
-0.174549 0.201753 0.060409
-0.178864 0.199878 0.064479
-0.177438 0.204621 0.063911
-0.175264 0.205533 0.061968
-0.179522 0.203701 0.066097
-0.178253 0.208346 0.065439
-0.176086 0.209251 0.06345
-0.180338 0.207433 0.067672
-0.179164 0.21204 0.066862
-0.176996 0.212941 0.064828
-0.181252 0.211129 0.069142
-0.182569 0.222989 0.07038
-0.180317 0.223957 0.068226
-0.179083 0.220312 0.06721
-0.181305 0.219382 0.069334
-0.184771 0.221972 0.072758
-0.183467 0.218412 0.071681
-0.183941 0.226568 0.071256
-0.181629 0.227576 0.069075
-0.1862 0.225504 0.073658
-0.185437 0.230119 0.071929
-0.183058 0.23117 0.069715
-0.187751 0.229022 0.074388
-0.187073 0.233666 0.072396
-0.184631 0.234753 0.070136
-0.189453 0.232533 0.074913
-0.188853 0.237213 0.072655
-0.186353 0.238332 0.070334
-0.191287 0.236056 0.075239
-0.190738 0.240793 0.072758
-0.188186 0.241927 0.070344
-0.193222 0.239617 0.075409
-0.192713 0.244406 0.072702
-0.190085 0.245577 0.070239
-0.195262 0.243197 0.075428
-0.194792 0.248051 0.072494
-0.192094 0.249266 0.069973
-0.197404 0.246802 0.075291
-0.196914 0.251788 0.072248
-0.19415 0.253039 0.06965
-0.199582 0.2505 0.075123
-0.199103 0.255641 0.071964
-0.196275 0.256928 0.069278
-0.201817 0.254311 0.074935
-0.201325 0.259668 0.071718
-0.198432 0.261001 0.068974
-0.204125 0.258266 0.074739
-0.203609 0.263886 0.071529
-0.200654 0.265266 0.068707
-0.206445 0.262426 0.074651
-0.205927 0.268315 0.071465
-0.202918 0.269766 0.068555
-0.208785 0.266769 0.07469
-0.208306 0.272935 0.071549
-0.205217 0.274494 0.068593
-0.211211 0.271278 0.074842
-0.210643 0.277812 0.071912
-0.207553 0.279455 0.06882
-0.213578 0.276043 0.075298
-0.213123 0.282911 0.072427
-0.210012 0.284653 0.069222
-0.216054 0.281035 0.075961
-0.21572 0.28829 0.073186
-0.212531 0.290151 0.069915
-0.218659 0.286309 0.076841
-0.21832 0.294018 0.074341
-0.215122 0.295973 0.070962
-0.22131 0.29191 0.078067
-0.220895 0.300083 0.075951
-0.217677 0.302138 0.072443
-0.223906 0.297879 0.079764
-0.225582 0.313076 0.080782
-0.222268 0.315308 0.077197
-0.220071 0.308619 0.074533
-0.223347 0.306469 0.078071
-0.228574 0.310697 0.084741
-0.226353 0.304167 0.08199
-0.227553 0.319816 0.084019
-0.22423 0.322101 0.080433
-0.230569 0.317367 0.087977
-0.229334 0.326565 0.087706
-0.22598 0.328903 0.084142
-0.232347 0.324063 0.091642
-0.230737 0.3332 0.091874
-0.227419 0.335586 0.088349
-0.233773 0.330679 0.09575
-0.231739 0.339628 0.09651
-0.228498 0.342062 0.093004
-0.234756 0.337083 0.100299
-0.232321 0.345758 0.101545
-0.229108 0.34821 0.098139
-0.23526 0.343196 0.105239
-0.229361 0.36507 0.124939
-0.226608 0.367515 0.122259
-0.227893 0.363632 0.115867
-0.230765 0.361158 0.118791
-0.231855 0.362583 0.127818
-0.233415 0.358646 0.121932
-0.22761 0.368253 0.131148
-0.224975 0.370658 0.128744
-0.229987 0.365816 0.133724
-0.22564 0.370709 0.137332
-0.223113 0.373081 0.135224
-0.227923 0.36833 0.139587
-0.223542 0.372448 0.143428
-0.221095 0.374765 0.141627
-0.225734 0.370117 0.145341
-0.221372 0.373483 0.149402
-0.218978 0.375738 0.147913
-0.223539 0.371226 0.150965
-0.219233 0.373879 0.155238
-0.216867 0.376071 0.154067
-0.221397 0.37169 0.156453
-0.217161 0.373683 0.160949
-0.214798 0.375815 0.160088
-0.219344 0.371548 0.161814
-0.215179 0.37293 0.166559
-0.212777 0.37499 0.165985
-0.21742 0.370859 0.167095
-0.213311 0.371701 0.172097
-0.210863 0.373703 0.171793
-0.215645 0.369709 0.172342
-0.211565 0.370048 0.177587
-0.209043 0.371983 0.177523
-0.213975 0.36808 0.177552
-0.208364 0.365541 0.188472
-0.205694 0.367402 0.188807
-0.207326 0.369873 0.183192
-0.209919 0.367983 0.183048
-0.210954 0.363645 0.188012
-0.212422 0.366052 0.18278
-0.206847 0.36272 0.193842
-0.204109 0.364561 0.194357
-0.209524 0.360859 0.193213
-0.205369 0.35955 0.199169
-0.202557 0.361362 0.199827
-0.208084 0.357677 0.198358
-0.200549 0.347519 0.214371
-0.197574 0.349238 0.215379
-0.199318 0.353701 0.210362
-0.202233 0.351936 0.209446
-0.203467 0.345784 0.213254
-0.205086 0.35015 0.208406
-0.198743 0.342701 0.219084
-0.19572 0.344366 0.220167
-0.201696 0.341012 0.217878
-0.190298 0.320387 0.234682
-0.187176 0.321794 0.235917
-0.189501 0.327778 0.232595
-0.1926 0.326296 0.231373
-0.193295 0.318962 0.233258
-0.195592 0.324792 0.229972
-0.187889 0.314406 0.237537
-0.184763 0.31574 0.238779
-0.190891 0.313063 0.23611
-0.185385 0.308455 0.23987
-0.182266 0.309709 0.2411
-0.188383 0.307197 0.238448
-0.182761 0.302623 0.241518
-0.179656 0.303782 0.242706
-0.185754 0.301458 0.240141
-0.180054 0.297024 0.24244
-0.17698 0.298085 0.243554
-0.183038 0.295958 0.241161
-0.177446 0.291755 0.242964
-0.174403 0.292722 0.243989
-0.180408 0.290785 0.241779
-0.175067 0.286821 0.243408
-0.17206 0.287701 0.244379
-0.178009 0.285937 0.242287
-0.172975 0.282181 0.243959
-0.169986 0.282988 0.244903
-0.175905 0.281371 0.242875
-0.171104 0.27783 0.244449
-0.168099 0.27857 0.245314
-0.174056 0.277094 0.243449
-0.169374 0.273811 0.244615
-0.166329 0.274478 0.245352
-0.172372 0.273161 0.243748
-0.167748 0.270248 0.244183
-0.164646 0.270824 0.244791
-0.170805 0.269694 0.243481
-0.166219 0.267316 0.242913
-0.163024 0.267818 0.243379
-0.169352 0.266845 0.242396
-0.16484 0.265137 0.240857
-0.161411 0.265599 0.24107
-0.168101 0.264704 0.240641
-0.138396 0.266729 0.239265
-0.137946 0.26507 0.238292
-0.138865 0.268584 0.240395
-0.143094 0.265834 0.238966
-0.142361 0.264379 0.237679
-0.140189 0.264663 0.238085
-0.140765 0.266244 0.239178
-0.143832 0.267456 0.240474
-0.141351 0.268006 0.240464
-0.145353 0.265433 0.238724
-0.144419 0.264155 0.237196
-0.146281 0.266905 0.240457
-0.147552 0.265042 0.23841
-0.146376 0.263938 0.236659
-0.148714 0.266369 0.240351
-0.149723 0.264683 0.237947
-0.148265 0.263727 0.236013
-0.151156 0.265854 0.24009
-0.151895 0.264337 0.237278
-0.150105 0.263518 0.235199
-0.15366 0.26535 0.239617
-0.154056 0.263921 0.236358
-0.151867 0.263225 0.234217
-0.15632 0.264778 0.238882
-0.155987 0.263299 0.235135
-0.15341 0.26272 0.233119
-0.159535 0.263932 0.23774
-0.144417 0.25293 0.228848
-0.144588 0.254704 0.228755
-0.145793 0.254522 0.227509
-0.145688 0.252717 0.227544
-0.144948 0.256538 0.228838
-0.146116 0.256364 0.227628
-0.145708 0.250922 0.227701
-0.144351 0.251209 0.229082
-0.145762 0.249119 0.227969
-0.144315 0.249535 0.229405
-0.143946 0.244807 0.230698
-0.145454 0.24402 0.229215
-0.151255 0.262005 0.23139
-0.149885 0.26243 0.232427
-0.149411 0.26106 0.229918
-0.14789 0.259788 0.228761
-0.14668 0.260028 0.229878
-0.148133 0.261391 0.23097
-0.145608 0.258359 0.229176
-0.14678 0.258171 0.228
-0.157756 0.252903 0.22384
-0.158773 0.252266 0.224508
-0.16002 0.251428 0.22529
-0.161561 0.25043 0.226074
-0.163436 0.249369 0.226755
-0.165607 0.248393 0.227225
-0.167895 0.247697 0.227394
-0.170174 0.247341 0.227233
-0.172452 0.247294 0.22678
-0.174576 0.24751 0.226175
-0.176408 0.247908 0.225504
-0.177914 0.248375 0.224815
-0.177659 0.252786 0.227623
-0.178796 0.252078 0.226539
-0.176368 0.253536 0.228581
-0.174904 0.254309 0.2294
-0.173274 0.255086 0.230059
-0.171497 0.255834 0.230524
-0.16958 0.256501 0.230725
-0.167539 0.257028 0.230618
-0.165419 0.257365 0.230208
-0.163316 0.257487 0.229526
-0.161352 0.257434 0.228631
-0.159645 0.257266 0.227598
-0.179769 0.251426 0.225369
-0.18077 0.250389 0.22339
-0.180594 0.249897 0.223211
-0.180477 0.250863 0.224226
-0.157304 0.252866 0.224254
-0.158447 0.252259 0.224924
-0.165237 0.242411 0.225505
-0.168078 0.241539 0.225145
-0.168392 0.240185 0.22446
-0.165509 0.241059 0.224877
-0.168741 0.238578 0.223891
-0.165782 0.239467 0.224371
-0.159741 0.251397 0.225737
-0.161309 0.250326 0.226566
-0.185234 0.253812 0.228497
-0.184386 0.253369 0.228007
-0.183053 0.254082 0.229474
-0.183836 0.254548 0.230028
-0.184677 0.251495 0.224128
-0.18389 0.250948 0.223853
-0.18308 0.25165 0.225157
-0.183809 0.252261 0.225415
-0.185437 0.250729 0.222979
-0.184623 0.250261 0.222712
-0.187813 0.248533 0.219866
-0.187673 0.249002 0.220426
-0.188356 0.249113 0.220346
-0.188295 0.2484 0.219574
-0.189182 0.249132 0.220035
-0.189038 0.248209 0.21907
-0.18819 0.249835 0.221321
-0.189086 0.249996 0.221188
-0.185815 0.2489 0.220851
-0.186608 0.249324 0.221066
-0.187025 0.248699 0.220274
-0.186305 0.248218 0.220062
-0.187413 0.248141 0.219607
-0.187942 0.247673 0.219007
-0.188672 0.247222 0.218325
-0.171263 0.239693 0.223856
-0.171699 0.238055 0.223231
-0.186787 0.24753 0.219337
-0.187371 0.24684 0.218625
-0.188127 0.246138 0.217857
-0.185813 0.244868 0.218607
-0.184808 0.24383 0.218927
-0.184194 0.245034 0.219663
-0.185177 0.245929 0.219334
-0.186586 0.243743 0.217809
-0.185561 0.242545 0.218115
-0.152454 0.251239 0.22499
-0.153379 0.250259 0.22501
-0.152785 0.24915 0.224787
-0.151695 0.250379 0.224842
-0.151822 0.252159 0.224971
-0.150982 0.251582 0.224944
-0.152707 0.253464 0.224462
-0.153156 0.253037 0.224615
-0.152531 0.252658 0.224872
-0.152142 0.253279 0.224735
-0.153123 0.251978 0.225018
-0.153757 0.252568 0.224828
-0.154527 0.251999 0.225099
-0.153942 0.251208 0.225165
-0.158502 0.260555 0.230331
-0.158179 0.260974 0.231323
-0.160664 0.261026 0.232544
-0.160851 0.260672 0.231521
-0.168424 0.259276 0.233956
-0.168592 0.259617 0.234884
-0.171171 0.258921 0.235066
-0.170897 0.258539 0.23417
-0.165904 0.259932 0.233414
-0.165962 0.260251 0.234376
-0.163297 0.260756 0.233585
-0.163355 0.260437 0.23258
-0.17367 0.258203 0.234916
-0.173289 0.257779 0.23406
-0.17605 0.257474 0.234468
-0.175569 0.257012 0.233665
-0.177717 0.256267 0.232989
-0.178288 0.256753 0.233733
-0.180349 0.256031 0.23271
-0.179696 0.255538 0.232025
-0.181481 0.254808 0.230836
-0.182207 0.255293 0.231458
-0.188183 0.251584 0.223904
-0.187222 0.251255 0.223723
-0.186445 0.251964 0.22508
-0.187394 0.252341 0.225391
-0.18641 0.253083 0.226927
-0.185502 0.252668 0.226519
-0.182123 0.252338 0.226565
-0.182793 0.252991 0.226805
-0.180979 0.253011 0.227986
-0.179627 0.253675 0.229329
-0.180166 0.254387 0.229507
-0.181581 0.253691 0.228197
-0.160856 0.259549 0.230395
-0.163163 0.259356 0.231561
-0.16298 0.258602 0.231373
-0.160746 0.258751 0.230199
-0.165563 0.258929 0.232503
-0.165317 0.258217 0.232345
-0.167981 0.258359 0.233098
-0.16769 0.257665 0.232969
-0.170027 0.257008 0.233156
-0.170365 0.25771 0.23326
-0.172647 0.257055 0.233027
-0.172266 0.256325 0.232933
-0.174783 0.2564 0.232474
-0.174371 0.255655 0.232367
-0.176758 0.255731 0.231689
-0.176309 0.254988 0.23155
-0.178557 0.255068 0.230688
-0.178069 0.254333 0.230532
-0.165252 0.257147 0.230844
-0.167411 0.256715 0.231295
-0.169484 0.256122 0.231403
-0.171443 0.255425 0.231186
-0.173278 0.254668 0.230698
-0.1735 0.254552 0.231442
-0.175296 0.253799 0.230717
-0.174977 0.253899 0.230005
-0.169522 0.256037 0.232153
-0.171565 0.255307 0.231943
-0.179663 0.251803 0.227427
-0.179121 0.25181 0.226964
-0.177902 0.252462 0.228127
-0.178389 0.252429 0.228691
