-59.254890 46.635731 39.734440
-50.500820 67.917946 49.270977
-38.731754 68.206841 59.975697
-25.114502 66.830482 67.370354
-14.285597 55.616112 64.939415
-27.415995 52.523148 57.711563
-40.920334 52.094501 55.507885
-53.936420 48.105000 45.127514
58.293991 45.624386 43.241413
54.059021 46.831799 49.250793
39.630527 52.278049 57.796471
23.250868 54.275513 59.221947
13.754654 55.505936 64.761421
21.003922 67.218193 67.972771
38.569096 68.966652 60.863148
51.745777 64.910034 50.442455
-45.484959 39.892555 50.143639
-39.089104 42.625694 55.205650
-32.621105 43.773468 56.700199
-26.735674 43.282192 55.918262
-17.202229 38.660374 53.103931
-27.261587 37.464748 54.479221
-33.537128 36.032284 54.568302
-39.136368 36.765800 52.837223
44.771515 38.794231 51.439743
38.663219 36.167393 54.753651
32.537987 35.045761 55.435703
27.089735 35.942154 55.275173
17.904833 38.376457 53.655460
26.170141 43.306446 58.130924
32.127506 42.652950 58.448811
38.412842 41.808819 56.684555
-32.765163 41.204704 53.764515
32.426357 41.569248 55.486511
9.361206 39.119518 61.519077
12.115209 12.517716 75.958351
21.117964 1.580107 64.901878
16.469131 -6.736139 67.585640
11.708418 -2.126314 75.663071
0.996465 -11.538625 77.525040
-12.317037 -1.386362 82.333977
-18.788073 -7.068546 65.742607
-19.738083 2.554366 66.969971
-11.042598 12.486177 75.162979
-7.591139 39.143505 61.862526
0.982800 4.868448 95.258545
-16.890074 -34.622646 66.597977
-13.804441 -27.995169 73.550880
-5.917225 -25.602978 76.912430
0.699551 -26.983734 75.881279
5.809177 -25.913803 75.764633
10.532872 -30.242958 72.200020
20.927210 -33.632202 62.754925
1.947793 -32.026756 73.892677
-3.432362 -37.380016 73.174759
-14.411534 -36.246658 69.886444
-9.433494 -31.382515 72.390724
-0.513607 -31.432281 74.303848
9.621891 -30.005205 72.856590
-9.221677 -32.062859 71.814026
0.137103 -31.722507 74.104912
9.314014 -29.492672 73.426102
-79.403709 -16.456427 -29.155220
-72.183762 -47.890213 -18.957365
-52.247990 -68.250038 29.103737
-35.891930 -76.291779 40.711231
-16.122509 -83.639030 60.813595
-4.934608 -83.532120 63.360371
16.665649 -82.597252 58.613647
28.354807 -79.044884 41.218624
54.801205 -62.172554 15.849470
74.563622 -36.249577 -15.357601
76.735069 -19.921431 -27.196384
